ply
format ascii 1.0
element vertex 1384
property float x
property float y
property float z
property uchar blue
property uchar green
property uchar red
end_header
568.484 369.195 224.557 81 114 79
567.836 384.238 223.045 89 107 74
567.285 397.285 221.468 80 101 71
567.187 399.281 221.532 84 105 73
566.131 510.501 126.171 117 108 144
579.077 229.618 158.108 91 88 94
567.057 508.414 130.144 113 108 147
566.629 431.563 244.654 80 102 81
568.07 527.152 109.802 9 36 65
576.93 283.45 193.922 104 131 94
570.823 385.413 222.212 84 101 74
569.442 457.977 175.579 4 1 3
578.355 276.578 191.743 107 136 96
571.821 385.461 222.256 81 101 75
585.23 212.871 127.749 57 53 57
579.17 278.553 193.849 95 135 95
574.195 356.524 222.362 88 121 93
571.467 474.697 157.213 103 108 144
572.152 483.833 154.553 114 96 142
572.004 501.354 139.126 130 110 152
585.349 246.735 133.929 3 2 1
580.653 285.498 198.158 94 116 81
574.74 390.732 218.556 74 101 68
585.439 233.6 168.533 109 89 90
578.527 333.877 216.759 91 107 77
577.8 347.819 218.21 85 117 81
576.602 368.646 222.882 96 109 77
576.724 392.893 216.713 87 102 73
576.09 478.79 161.558 96 99 142
581.508 336.085 214.96 102 118 80
580.274 355.844 221.597 87 110 77
577.265 470.68 166.336 100 86 136
577.208 494.5 142.117 95 98 135
577.061 497.495 142.214 104 92 141
576.81 503.519 141.409 109 104 152
576.846 504.586 139.445 110 88 147
576.822 508.717 135.58 94 89 136
586.241 278.955 192.163 80 118 86
578.134 477.887 161.614 85 93 138
590.377 256.625 145.501 13 7 4
588.504 261.342 182.639 54 15 28
582.789 348.056 218.432 94 113 80
581.022 385.027 218.628 72 102 71
580.453 450.981 160.787 1 1 3
581.616 444.936 163.633 1 7 17
581.469 447.93 163.729 5 4 10
589.79 272.281 187.077 68 101 70
586.539 320.509 208.63 99 106 76
583.556 374.141 218.362 80 96 66
582.891 457.939 166.138 101 109 135
582.003 484.204 157.992 1 13 17
586.291 358.229 218.932 68 105 76
584.927 392.412 213.041 81 114 77
584.757 442.083 163.669 1 2 17
583.986 455.99 166.118 87 101 130
596.326 247.258 134.416 13 8 7
587.968 345.333 217.558 83 110 77
583.9 436.487 211.511 34 2 22
595.802 264.758 150.019 21 30 24
584.958 497.806 144.565 113 103 154
590.013 344.43 217.614 71 104 78
586.112 414.964 229.893 95 124 84
585.012 426.531 242.262 93 118 86
586.326 464.945 171.534 84 89 121
593.51 307.058 201.454 108 134 92
590.411 358.522 216.114 90 101 74
590.601 378.673 212.81 99 97 66
599.507 269.906 151.357 2 4 4
590.67 397.688 213.468 90 114 83
590.139 450.182 169.185 83 88 127
589.356 466.155 169.702 5 11 14
601.013 279.983 151.768 6 5 2
595.264 343.841 212.811 83 101 74
594.188 365.803 213.522 87 103 65
594.139 366.802 213.554 89 104 69
602.696 266.055 151.36 1 10 13
598.114 314.249 202.9 100 111 81
591.421 420.929 239.339 99 111 82
603.883 263.142 150.309 42 72 60
594.942 393.953 211.519 99 117 83
610.11 207.214 92.5648 57 79 65
606.081 227.836 161.205 87 60 61
604.349 273.138 151.675 4 5 6
601.583 290.626 195.224 18 4 12
599.493 324.224 206.307 89 120 84
605.408 270.121 153.62 15 15 20
601.102 315.425 202.067 83 109 75
608.588 242.87 133.788 1 7 2
596.965 485.949 157.69 81 78 119
604.23 314.637 200.17 80 82 50
602.965 332.297 209.738 91 98 71
601.265 365.172 212.801 89 124 83
599.673 465.583 141.08 63 33 27
613.97 216.919 108.087 36 43 36
610.695 254.751 141.298 14 23 17
604.898 319.608 202.373 87 95 69
602.954 350.211 213.36 96 122 84
614.467 221.751 114.283 61 43 45
604.239 345.301 212.244 85 107 73
601.849 435.73 169.188 2 5 3
601.457 450.98 161.685 10 7 9
600.521 478.243 153.571 91 90 133
181.826 523.022 211.418 162 147 147
184.713 372.259 232.448 122 150 113
180.444 435.045 267.445 151 195 236
193.364 217.128 178.493 135 126 129
191.44 236.513 196.087 124 113 113
189.383 253.829 215.605 113 115 111
183.649 414.785 246.92 168 213 200
181.723 430.137 265.375 199 233 251
180.234 441.634 279.714 219 250 252
193.703 222.93 184.756 135 128 130
188.754 288.467 226.822 150 133 130
188.648 293.463 226.99 145 128 128
186.429 385.285 233.062 94 152 112
181.389 475.978 270.989 220 254 251
185.308 529.948 215.99 156 140 140
198.473 204.304 146.346 253 254 253
183.075 485.342 261.425 218 248 252
186.437 502.811 220.151 149 139 140
186.708 510.981 215.442 119 113 123
188.058 547.8 192.758 173 160 164
189.474 352.488 228.151 129 163 122
194.746 243.369 202.65 143 127 125
193.005 270.888 216.53 132 111 115
191.317 337.73 221.763 136 162 121
188.957 390.195 237.478 127 155 117
187.939 496.606 227.096 176 164 156
185.193 471.949 274.196 189 249 251
197.701 235.729 193.6 123 112 110
192.872 341.622 226.057 131 159 119
189.783 532.86 221.512 122 110 113
192.333 555.043 188.37 198 179 170
196.622 258.094 212.379 121 107 112
192.549 374.368 234.221 123 153 111
204.449 204.414 146.879 207 192 194
203.13 207.917 160.95 165 145 154
197.639 257.113 212.434 122 104 107
197.074 266.964 216.751 147 127 121
188.505 435.855 278.233 143 208 241
198.519 250.031 215.275 123 112 115
196.05 332.684 226.022 127 159 112
193.117 524.992 219.519 137 133 132
192.661 533.879 222.808 93 104 119
194.786 546.822 196.332 156 144 136
202.973 221.201 182.502 128 108 107
202.779 226.162 183.665 117 108 117
207.436 204.468 147.145 170 166 169
203.03 231.929 190.924 107 91 83
200.73 248.139 213.394 152 127 125
196.745 364.448 234.241 119 150 110
195.117 395.036 246.231 122 161 117
190.778 452.755 283.051 214 240 250
199.964 276.677 227.397 122 115 122
199.657 278.569 230.45 127 112 120
199.302 303.62 229.298 109 124 116
202.226 263.093 216.066 139 136 131
200.194 312.666 228.693 210 243 214
196.73 529.955 223.029 143 138 137
197.91 400.051 247.66 122 158 114
193.583 444.675 287.032 212 244 250
199.547 548.841 198.834 172 171 150
204.109 264.094 217.273 137 116 119
200.811 356.492 235.323 92 160 159
194.759 478.02 278.272 217 239 250
198.252 493.526 235.936 142 166 116
198.879 505.869 226.384 146 143 143
199.043 519.036 221.842 109 119 113
210.79 209.955 164.714 160 143 143
200.018 520.053 221.965 133 131 118
209.227 234.142 188.537 110 106 104
200.892 392.042 249.649 233 212 233
200.57 402.998 251.014 106 147 106
197.551 486.438 267.768 191 227 248
202.933 376.355 241.238 250 254 252
203.488 550.912 199.257 168 158 155
204.056 370.378 241.126 217 254 253
198.567 478.022 280.618 215 237 249
202.027 536.847 229.769 140 126 126
204.48 546.898 200.207 130 111 108
211.692 242.049 193.054 127 109 113
202.241 410.588 264.49 198 230 231
203.306 531.94 227.7 145 132 131
206.496 549.967 199.49 160 159 161
207.451 559.419 186.85 171 156 149
207.73 346.521 238.596 234 243 235
209.309 331.657 235.196 250 245 176
206.141 505.732 235.058 154 144 146
210.177 337.671 235.486 124 162 108
207.623 395.096 252.363 132 169 132
207.291 506.82 233.189 151 143 145
211.252 325.628 237.163 243 173 153
213.073 282.644 236.805 135 122 120
212.736 302.664 236.481 126 157 117
210.353 381.32 247.094 143 165 122
206.515 432.186 279.697 162 203 242
211.211 549.953 202.92 153 142 151
211.515 391.102 254.575 135 157 120
212.548 523.146 227.202 132 118 118
216.196 568.945 176.912 202 177 166
216.695 299.704 237.731 120 153 107
215.648 340.601 241.097 130 163 121
213.764 404.969 260.289 103 137 121
209.936 467.931 290.308 219 243 251
213.671 538.958 233.889 137 123 122
227.493 207.53 158.071 159 143 143
218.55 293.639 240.694 119 105 112
218.253 307.628 241.163 142 166 123
210.825 443.721 296.56 209 241 250
227.571 217.259 166.459 97 90 91
229.506 206.568 158.215 164 145 145
212.766 462.884 293.393 211 241 251
216.207 497.516 247.712 93 155 113
216.871 529.021 233.82 136 129 131
219.974 350.508 246.853 129 165 120
214.75 487.483 277.364 195 177 168
220.949 555.465 193.933 141 127 128
235.162 188.924 120.923 248 254 254
226.149 240.742 211.365 140 134 120
221.207 343.567 245.712 139 164 126
218.223 500.585 246.995 123 113 97
231.427 223.327 167.015 93 86 79
227.187 238.762 211.386 91 93 93
227.321 240.83 209.462 135 129 118
223.205 555.607 191.124 138 123 128
224.34 569.161 175.632 174 169 161
228.338 239.849 209.518 114 119 124
221.382 387.216 257.32 130 153 108
220.887 514.999 236.692 145 134 135
221.067 519.102 233.84 113 88 88
220.854 529.093 234.175 135 122 121
228.596 253.68 215.053 127 113 121
217.797 473.073 291.186 208 246 251
222.263 522.223 231.043 132 118 113
222.048 528.183 232.24 132 122 128
221.85 529.112 234.264 135 125 123
225.998 305.67 244.793 135 160 118
223.869 372.335 255.004 154 180 164
218.74 433.769 299.922 206 246 253
228.919 261.111 232.423 135 105 105
226.477 321.605 247.409 123 160 116
222.425 407.655 275.214 208 236 244
220.281 483.383 283.736 179 228 242
223.842 529.148 234.442 137 122 125
232.258 242.92 209.974 116 99 99
231.89 251.842 212.266 133 112 112
228.351 288.719 244.401 135 127 124
222.376 423.378 283.803 187 231 252
220.753 432.806 300.066 219 247 252
224.459 405.692 275.325 216 237 246
221.692 473.11 292.537 201 239 250
234.408 248.058 207.333 121 97 100
233.466 254.735 216.527 142 122 127
231.819 261.13 233.684 126 106 110
229.052 328.548 250.897 134 162 119
228.199 364.484 253.1 196 217 194
225.085 410.601 278.568 198 232 242
225.902 497.592 251.587 136 164 125
235.355 242.011 209.211 121 99 99
230.002 326.532 251.914 141 164 122
228.976 366.43 255.247 170 167 137
223.58 452.951 298.017 205 237 249
224.265 483.456 284.091 191 219 240
227.91 525.224 234.663 126 115 110
230.679 341.539 252.506 141 159 121
227.665 487.46 256.407 118 151 162
242.507 220.934 155.857 94 81 84
227.331 420.436 285.142 211 242 251
225.408 469.045 296.74 210 239 250
228.804 501.643 251.988 136 121 103
246.149 196.819 131.216 139 120 123
243.454 214.887 157.736 93 86 85
243.46 222.951 156.013 104 83 83
234.867 275.944 241.511 137 114 116
232.968 327.586 252.214 137 164 120
231.077 387.292 261.195 128 157 114
230.962 522.281 234.829 130 114 110
245.279 205.16 150.521 164 133 133
234.389 307.62 251.632 140 165 122
229.888 410.621 281.003 193 239 249
230.887 505.747 250.309 141 132 136
231.419 509.991 243.475 148 130 131
231.979 521.3 234.884 122 110 107
231.417 535.183 238.34 134 122 125
234.514 552.547 200.053 133 137 138
235.223 556.861 191.228 138 115 122
244.118 235.554 168.572 71 68 74
230.255 423.488 285.509 181 224 251
247.754 203.374 145.654 150 140 144
246.834 209.052 154.815 116 95 96
241.467 248.221 206.959 117 103 104
240.832 253.005 213.099 134 115 115
237.031 293.809 247.359 124 159 117
232.271 404.769 277.993 205 241 249
231.879 410.658 281.18 214 239 248
237.592 560.071 186.529 118 99 98
252.436 184.713 108.24 184 187 193
238.069 291.828 247.38 128 158 115
235.877 361.491 257.692 124 165 121
240.074 573.784 167.144 179 155 156
236.997 351.482 258.441 155 164 122
236.921 389.365 262.79 134 158 120
232.37 457.076 299.946 205 239 251
252.792 199.838 134.925 142 128 129
242.378 263.188 238.71 133 104 116
233.389 430.903 305.136 220 245 250
242.095 289.903 247.669 128 159 117
239.107 384.44 261.805 123 156 113
234.259 466.141 299.43 196 236 250
238.537 528.316 238.727 134 122 125
242.969 562.337 182.062 115 121 111
242.948 563.336 182.096 121 119 115
247.072 253.22 210.646 135 111 106
242.894 290.849 249.782 132 161 120
240.959 352.554 258.83 135 160 121
240.832 358.549 259.031 126 160 112
235.172 444.964 304.787 194 233 250
235.284 448.032 302.897 163 235 251
235.245 454.062 302.103 184 238 250
238.988 507.962 249.095 134 124 127
239.32 538.326 239.151 122 109 105
239.016 544.251 241.343 68 73 84
244.12 563.425 180.194 120 117 114
259.453 186.874 107.933 132 128 125
257.94 195.338 123.167 126 106 101
256.755 200.91 135.314 151 132 135
254.728 229.323 152.214 79 64 60
249.908 234.448 205.209 106 63 71
249.802 239.444 205.377 121 106 108
245.903 268.115 243.215 138 127 121
243.057 347.594 258.839 125 155 112
241.791 390.42 264.263 124 155 115
240.667 501.826 254.049 92 100 100
254.98 235.089 159.472 91 74 81
247.4 261.28 239.088 130 97 108
244.861 309.642 257.654 139 165 119
244.244 338.62 258.626 130 158 126
243.968 351.609 259.062 132 157 115
239.29 425.316 296.419 182 223 242
247.421 569.651 175.684 144 128 132
246.941 287.925 250.037 122 158 110
243.479 396.381 266.633 110 154 114
243.172 511.138 246.565 132 123 119
243.82 522.482 236.979 129 108 106
262.113 189.821 111.286 125 111 109
241.828 420.533 291.452 190 222 249
244.658 517.399 239.887 114 104 110
249.227 557.521 180.437 95 85 81
250.699 580.279 159.274 75 89 152
247.353 324.615 260.414 130 161 116
254.635 250.562 205.194 121 100 101
247.815 345.581 262.203 129 157 112
241.982 435.957 309.089 209 239 251
245.646 501.917 254.493 105 103 100
246.695 519.469 239.136 107 98 97
250.042 546.001 196.173 66 63 68
261.654 205.627 146.965 125 97 97
250.663 291.924 252.517 138 164 122
249.77 304.667 259.921 129 164 120
248.853 343.601 262.225 129 156 110
247.463 396.453 266.989 124 136 96
247.423 515.349 243.072 119 120 124
267.059 182.217 102.414 163 106 117
248.926 374.489 266.34 129 157 115
255.39 584.666 150.804 4 12 9
263.81 218.83 142.601 90 77 78
263.662 225.824 142.836 83 72 75
257.99 241.694 203.168 114 91 94
245.086 472.336 300.608 194 243 251
269.404 182.394 98.6099 138 113 112
259.011 244.745 202.362 108 93 101
252.436 315.678 261.552 126 155 112
250.487 528.534 239.793 142 125 123
254.71 288.999 252.772 139 161 118
253.018 322.584 264.862 129 159 116
252.833 339.642 263.441 124 154 110
246.949 449.144 306.983 202 233 249
247.172 480.472 298.068 206 227 243
251.385 516.421 243.461 106 92 100
253.511 354.648 264.033 126 154 111
251.396 495.89 258.807 123 156 120
252.415 531.568 240.071 134 124 122
257.984 266.371 243.219 135 117 115
257.246 280.184 248.666 77 85 92
258.235 559.718 180.308 122 99 102
255.651 347.69 263.976 126 155 112
252.786 402.976 284.768 208 242 245
253.409 494.927 258.951 127 157 120
274.122 186.412 101.179 96 110 109
260.128 263.445 242.3 139 124 126
259.912 269.405 243.497 119 102 97
255.612 517.599 240.863 106 86 91
251.941 465.363 303.982 197 234 250
256.34 513.479 244.8 122 113 115
256.505 526.645 240.259 132 113 110
261.527 553.848 178.382 112 95 91
266.14 249.974 200.165 102 90 90
258.08 365.66 266.837 104 153 109
253.3 423.203 308.635 202 253 253
252.937 465.382 304.071 196 235 249
257.826 519.74 238.122 109 101 97
257.373 532.658 240.549 109 111 112
262.988 269.495 242.768 117 105 100
263.412 558.88 178.727 101 102 99
259.877 370.657 268.178 118 153 105
280.836 180.143 83.4699 124 118 123
279.454 186.644 97.6414 120 105 108
255.666 473.395 305.601 195 233 248
259.655 503.207 254.775 129 113 107
265.83 568.156 172.239 137 123 126
261.55 385.682 268.859 122 152 108
263.208 358.756 267.047 125 149 108
268.031 266.588 243.112 112 103 101
263.673 383.755 267.974 135 150 110
263.175 394.64 271.329 172 186 149
268.455 555.973 179.071 93 91 91
285.875 176.607 72.7408 199 173 184
264.626 385.771 268.13 117 149 108
266.872 322.804 267.101 137 152 109
262.742 420.915 293.317 195 223 238
265.814 518.886 238.799 121 100 98
271.82 249.832 237.83 116 103 101
271.195 266.713 241.387 118 102 98
268.794 295.984 262.303 129 163 118
285.133 197.339 110.578 101 96 102
264.709 417.918 294.39 170 211 239
262.722 469.525 306.088 198 232 250
267.763 520.92 239.044 122 108 103
289.198 178.431 80.1315 142 124 124
287.576 187.859 96.3945 117 105 103
273.791 250.868 238.042 122 104 109
272.162 281.456 250.031 126 158 115
270.263 303.873 266.731 123 150 106
270.179 307.87 266.865 122 147 104
269.693 334.884 266.775 124 152 111
269.013 366.859 267.848 119 149 105
263.535 432.184 315.887 205 236 250
267.351 495.182 260.195 120 151 113
271.955 292.077 261.44 131 156 116
270.916 315.847 268.217 127 146 106
269.517 385.827 269.569 118 149 105
269.755 520.957 239.221 116 107 105
275.617 579.735 161.461 139 123 121
292.245 174.859 69.2248 213 182 183
271.685 334.921 266.952 125 149 105
270.899 371.892 268.193 131 150 115
270.598 381.849 269.524 122 153 115
268.149 405.054 292.229 177 220 239
273.209 305.926 267.064 126 147 103
272.019 361.883 268.942 109 147 105
270.339 495.237 260.461 114 143 109
270.673 500.409 255.651 102 103 90
273.525 337.919 268.226 124 148 98
272.65 374.855 270.462 120 147 103
267.455 435.255 316.343 200 228 250
271.11 489.119 264.331 102 142 111
289.678 227.108 121.076 76 74 72
277.273 279.584 249.413 127 149 104
268.855 445.512 309.798 200 229 250
272.236 487.174 263.357 104 129 95
272.911 505.583 252.015 115 102 108
296.821 172.146 63.5066 226 224 238
294.101 187.181 90.9211 111 95 100
285.062 228.531 195.053 16 45 43
277.001 314.992 267.721 121 141 96
270.524 427.28 317.336 197 233 250
277.554 340.026 267.653 115 147 102
271.561 479.716 306.228 193 227 248
276.055 535.931 244.328 121 102 101
297.484 185.378 87.1385 122 101 105
294.284 206.267 118.736 56 50 52
294.752 213.509 112.003 67 52 55
294.381 218.399 115.157 80 60 62
274.816 411.106 295.043 204 233 248
272.724 467.708 306.91 200 235 250
283.641 568.818 163.794 116 108 113
295.365 202.289 118.691 93 73 72
295.25 224.413 115.447 87 69 68
283.531 252.978 240.988 123 101 104
280.812 297.237 262.406 106 133 96
275.463 415.015 298.253 162 215 242
295.942 230.356 117.728 37 39 48
280.538 336.049 268.781 109 141 96
280.01 365.061 268.758 104 146 102
285.967 574.027 159.162 105 100 95
297.73 201.467 114.853 104 82 91
285.544 252.015 241.132 118 100 100
281.282 352.089 268.411 121 145 99
275.538 471.725 308.306 205 237 252
276.722 458.718 308.954 194 227 251
283.232 354.124 268.656 109 144 101
282.697 375.072 270.355 120 146 106
277.775 447.674 310.665 194 229 246
277.828 457.772 308.014 194 226 250
301.927 198.982 102.078 109 91 96
288.383 259.064 241.633 130 100 104
284.397 346.149 268.476 120 145 99
284.164 357.14 268.845 122 145 105
278.653 465.784 308.371 187 229 251
284.113 518.355 236.382 110 101 95
294.144 239.827 192.239 93 83 86
285.266 352.162 268.766 124 146 100
281.459 414.125 298.752 173 221 238
285.109 518.374 236.471 103 99 95
284.587 526.226 240.721 126 111 122
291.348 580.325 153.834 120 107 107
303.798 213.078 100.734 52 45 44
294.836 245.77 194.52 100 83 71
290.657 254.175 239.652 119 103 97
287.938 298.434 261.071 99 127 89
286.347 348.183 268.721 121 143 103
291.291 271.18 240.311 97 76 83
288.545 308.374 263.486 110 133 90
281.649 419.487 318.045 219 247 253
290.036 293.475 261.081 102 131 96
289.046 323.31 266.069 109 135 95
288.083 360.211 269.301 110 141 97
287.178 498.914 251.032 88 93 84
293.216 557.762 171.281 79 77 78
293.581 257.227 240.019 117 102 102
291.162 291.53 260.107 109 136 101
291.099 294.527 260.208 101 132 96
290.452 312.407 263.798 109 128 94
290.321 314.371 264.861 107 131 100
283.633 465.875 308.815 197 231 250
313.409 170.056 46.8197 136 128 141
291.165 317.351 266.045 102 132 94
289.565 384.228 270.283 115 147 107
286.524 410.219 299.062 201 232 247
297.105 589.797 143.63 78 97 138
310.415 194.678 86.6041 94 87 86
308.616 204.035 104.858 84 75 82
293.33 291.637 258.294 115 139 100
291.184 363.333 267.677 111 146 105
285.819 460.951 307.83 188 229 248
296.517 563.989 166.772 116 111 104
289.232 397.442 293.826 189 228 235
288.452 413.253 299.34 180 217 238
291.971 519.465 238.122 133 109 108
297.564 257.3 240.375 110 111 114
295.781 286.818 254.322 123 142 99
295.541 289.745 256.414 117 138 102
292.618 523.374 241.331 120 108 102
294.256 359.391 267.809 111 151 101
293.697 377.306 270.404 120 146 103
293.612 381.303 270.538 116 150 109
288.28 435.602 319.203 202 233 251
288.304 438.634 318.308 181 228 247
288.761 458.971 309.024 194 232 250
291.962 405.455 295.357 184 230 240
295.217 511.561 237.125 86 88 82
300.409 272.413 239.153 95 100 95
300.106 278.338 241.345 95 118 88
297.274 319.529 264.654 112 132 93
290.734 464.039 308.374 196 232 250
294.984 489.925 255.423 80 119 78
318.624 177.542 65.6284 116 117 114
315.4 224.623 92.1251 65 51 48
296.297 529.371 243.879 112 94 96
299.937 304.719 260.347 103 128 95
297.578 499.272 246.943 92 84 72
304.175 540.205 164.598 89 85 83
304.09 544.202 164.732 57 80 82
321.296 174.828 58.7371 111 92 103
318.978 196.07 80.3799 99 84 87
318.078 200.749 89.5069 110 100 99
317.371 225.658 92.3363 52 44 47
308.371 239.188 190.463 93 80 77
303.181 278.428 240.616 99 123 85
300.608 311.661 262.662 111 130 99
300.046 325.544 266.117 108 135 100
293.299 429.662 320.442 191 226 242
299.419 509.706 235.422 90 78 82
323.742 169.38 43.6925 167 142 135
301.929 304.755 260.525 108 130 94
301.886 306.754 260.592 105 130 95
297.005 402.549 295.7 196 221 235
294.417 474.069 310.06 191 230 244
298.868 532.283 248.228 111 94 100
321.188 194.178 78.4995 97 82 82
304.471 282.214 247.896 118 139 113
301.722 344.601 265.937 110 142 96
298.022 401.568 295.755 185 221 235
296.329 427.718 320.641 202 233 250
296.561 471.143 309.142 182 229 247
296.348 481.135 309.477 194 231 246
301.276 529.462 244.323 111 96 94
312.747 233.372 187.631 95 92 93
327.133 172.239 50.1213 134 123 126
304.941 329.632 266.696 112 141 95
303.614 379.487 271.359 118 145 108
298.25 422.688 322.642 200 239 252
298.383 479.173 309.588 185 225 243
311.845 561.775 152.982 98 98 98
324.612 204.732 94.2447 108 101 94
326.49 212.537 71.5835 39 34 37
308.882 288.124 253.519 114 137 101
308.469 295.013 256.74 122 131 92
307.345 322.779 263.652 113 138 96
306.984 339.766 264.222 116 144 98
305.648 377.525 271.47 123 150 106
305.457 386.518 271.771 101 133 90
300.653 441.028 314.464 183 224 240
327.556 217.622 69.849 37 30 39
308.599 314.839 262.477 106 137 98
306.559 381.54 271.693 119 147 105
306.516 383.538 271.76 114 143 106
301.174 425.74 323.009 194 235 250
307.091 498.648 241.736 82 85 77
307.325 516.881 235.372 113 96 94
332.192 167.703 39.3587 167 154 147
317.751 236.496 187.18 100 90 88
313.003 250.719 237.49 113 103 101
312.497 278.733 237.434 102 130 100
308.241 357.647 268.986 119 148 109
308.865 508.047 231.177 80 79 75
333.869 164.971 32.3785 184 161 175
319.029 231.588 185.11 113 90 92
310.035 336.823 264.388 102 143 105
303.461 436.98 317.583 172 216 243
303.647 449.146 313.008 194 228 248
309.667 513.026 232.429 96 83 81
328.531 207.802 94.7006 76 63 70
331.294 219.993 61.2232 41 31 32
304.31 418.8 323.041 196 236 250
304.765 464.33 308.622 206 236 249
317.442 562.113 146.458 106 97 92
305.672 464.312 309.707 202 233 247
311.606 502.965 235.257 87 83 79
311.44 514.991 234.665 105 96 90
318.638 565.234 143.661 95 79 83
333.596 222.169 57.4861 29 30 31
313.624 316.964 261.993 120 139 97
312.291 358.755 268.379 127 151 109
312.139 361.717 269.475 124 151 107
319.273 582.239 144.32 84 82 82
336.293 171.474 48.8962 131 122 119
320.14 559.028 150.606 117 95 97
316.683 300.296 253.637 108 130 91
313.876 373.744 270.055 132 151 108
308.103 427.866 323.698 195 231 249
321.264 553.051 150.494 59 61 59
321.313 559.117 148.704 123 101 94
318.24 286.431 250.27 119 140 107
309.692 454.322 311.717 189 221 242
321.982 536.835 157.014 66 68 53
322.175 557.066 150.717 98 76 79
322.618 561.275 144.878 100 81 90
336.309 202.586 76.1183 114 90 93
326.158 236.818 182.913 102 86 89
318.544 302.295 254.877 110 134 96
316.879 342.946 265.211 128 148 102
316.709 350.94 265.48 121 148 109
316.671 499.059 235.567 85 81 79
337.481 202.675 74.2161 109 91 93
321.896 245.817 240.113 111 87 88
317.662 352.956 265.636 122 149 108
317.641 353.955 265.669 123 147 109
316.931 374.833 269.36 121 150 112
316.757 378.795 270.489 116 145 104
311.744 447.329 312.656 184 219 243
317.263 518.062 236.293 103 100 90
317.153 519.026 237.322 107 100 95
319.907 315.181 259.473 124 143 107
325.302 538.03 153.332 74 68 66
325.756 583.559 138.914 97 93 95
325.233 591.412 143.164 137 122 120
319.718 349.995 265.713 124 146 105
313.62 411.041 321.581 199 241 250
319.692 514.243 232.355 92 91 87
319.276 517.1 236.438 100 94 93
323.095 296.549 250.054 103 130 90
320.565 357.008 266.036 126 149 110
317.007 398.916 297.342 174 222 235
320.982 496.24 232.836 79 75 63
345.357 166.012 38.4553 161 148 146
342.732 189.147 63.1516 115 103 106
331.791 227.093 178.044 131 122 109
326.206 268.19 232.247 107 97 86
320.741 378.868 270.845 115 146 102
329.345 563.7 136.519 73 75 75
343.6 195.16 63.4417 106 99 102
332.592 232.072 179.296 100 90 90
324.607 302.44 254.414 113 135 96
322.876 342.056 265.711 128 149 102
316.088 422.98 325.236 198 239 249
329.958 581.704 137.211 131 95 92
345.969 176.581 51.9431 99 92 101
343.067 212.706 77.0754 56 39 44
328.334 274.327 229.639 70 65 63
324.928 313.273 259.85 129 144 103
319.822 402.932 298.739 183 217 231
349.143 167.013 40.8351 130 99 105
347.414 181.437 57.2658 106 93 93
346.934 187.292 61.4489 114 97 95
346.912 188.291 61.4824 112 96 94
346.524 198.212 63.8088 109 99 97
330.436 273.4 228.788 78 84 74
329.536 278.078 237.915 106 127 90
328.375 286.683 249.167 109 127 94
325.736 348.106 266.178 119 149 106
325.289 369.089 266.882 120 147 108
322.618 390.19 292.507 178 215 222
321.792 403.967 298.95 177 209 227
319.397 412.079 324.138 212 241 250
319.16 419.038 325.369 202 235 250
326.172 511.531 227.81 87 82 79
329.526 287.771 247.298 104 127 90
326.795 345.126 266.167 120 146 102
326.024 373.034 269.097 115 148 106
326.116 519.19 238.122 111 92 93
348.254 202.175 66.1115 109 87 84
350.072 217.011 42.6896 47 42 42
332.418 261.34 231.549 96 86 76
330.564 285.791 247.32 109 133 95
327.296 360.062 268.749 127 152 107
327.062 371.053 269.118 121 152 109
335.301 539.616 142.219 82 78 73
334.111 246.141 238.192 105 87 86
323.762 448.582 312.76 178 221 243
352.329 184.526 57.8105 102 89 95
340.997 228.362 175.891 119 99 94
340.605 234.251 179.079 87 85 84
340.255 238.142 182.199 84 85 84
330.22 363.114 269.117 119 149 109
330.23 517.3 237.415 108 90 94
330.813 524.207 240.725 86 85 79
339.622 548.894 136.904 50 47 38
356.375 163.215 39.3318 186 130 131
337.439 259.432 231.927 88 88 86
334.632 303.656 254.341 120 138 99
331.653 381.066 271.889 85 133 94
326.789 442.606 313.821 200 233 244
340.49 554.907 137.194 90 80 83
355.147 192.574 58.3453 94 87 89
327.042 423.18 326.213 190 234 246
342.797 597.774 113.804 140 151 189
336.822 302.764 252.494 117 142 103
328.731 407.352 321.784 194 228 239
328.71 437.576 315.822 167 214 234
328.574 460.699 312.611 191 230 248
328.745 481.929 306.347 163 209 222
335.227 370.27 267.804 118 148 105
333.1 382.519 289.145 164 173 148
328.973 430.247 325.63 176 217 235
341.24 251.37 235.995 100 97 97
337.726 320.504 261.239 136 146 106
337.273 333.424 263.666 125 146 103
337.121 336.386 264.762 128 152 109
344.988 564.255 129.887 86 89 87
348.889 222.811 167.352 198 198 191
337.859 344.363 266.115 116 148 105
331.853 438.7 314.131 172 218 244
360.376 201.835 54.1138 88 74 78
344.218 271.955 220.916 78 82 73
332.88 449.815 311.602 182 225 246
347.058 552.23 131.653 107 83 78
347.022 562.293 129.998 103 90 88
346.196 576.07 136.44 99 89 94
342.567 296.107 245.735 110 136 99
340.975 316.632 259.38 124 149 103
340.325 330.48 263.832 122 146 104
339.872 343.4 266.259 120 151 109
348.928 598.953 112.38 75 67 118
340.27 367.364 268.148 114 145 105
337.514 392.462 293.907 175 210 220
342.182 503.163 218.886 77 62 64
363.637 214.092 48.8099 69 61 60
346.107 248.393 238.33 117 104 98
343.51 307.817 255.274 126 146 105
335.776 445.803 313.725 184 224 240
350.896 541.541 124.583 60 39 52
347.139 238.348 240.074 102 83 80
347.121 243.38 239.247 105 92 89
346.293 282.35 240.554 106 129 96
344.527 306.836 255.329 114 147 108
344.202 313.76 257.555 128 147 112
343.962 316.687 259.647 132 147 107
342.283 366.401 268.292 124 149 106
336.884 448.889 311.924 180 221 240
336.773 475.045 307.818 171 207 226
343.825 507.091 222.184 71 65 64
350.68 569.29 132.579 84 77 79
366.006 217.302 44.1107 90 75 75
342.996 371.345 270.539 125 154 112
337.923 446.909 311.946 178 222 241
353.045 601.095 110.811 61 41 56
367.831 178.351 42.8917 112 103 106
347.154 302.088 249.367 125 146 105
344.296 365.438 268.436 126 150 111
338.834 480.148 306.173 163 193 213
350.331 245.539 236.594 107 92 89
351.389 275.186 218.652 65 92 54
347.247 499.258 219.196 79 76 71
353.844 569.415 130.854 94 78 79
352.863 582.122 139.254 104 93 92
358.18 220.083 165.065 133 107 119
349.799 292.309 244.232 110 132 94
349.778 293.308 244.265 113 134 97
344.012 384.718 290.189 165 216 221
355.786 596.012 114.892 152 129 135
370.833 169.342 44.8473 122 88 96
347.534 516.751 234.909 82 75 75
357.105 530.658 124.747 32 27 30
353.157 236.459 240.54 94 79 77
354.127 266.072 223.594 109 94 99
354.441 272.243 218.818 60 57 52
342.783 435.867 316.003 178 219 240
342.86 478.222 306.461 145 189 208
354.74 254.851 230.282 113 94 95
349.466 356.536 268.578 126 150 109
342.794 415.337 331.348 199 224 244
344.501 485.553 297.825 49 100 149
361.993 228.15 165.688 112 89 87
355.557 250.767 233.223 121 105 108
343.683 420.351 331.605 200 227 240
356.911 258.99 227.608 91 86 81
355.152 291.541 240.66 113 128 92
360.868 557.851 122.026 75 66 71
378.912 161.604 12.1388 149 146 158
353.299 337.782 263.23 126 152 108
346.411 431.767 321.201 172 215 234
359.198 270.23 222.181 67 74 62
354.634 321.813 262.783 123 152 111
352.846 372.491 272.457 130 157 114
347.43 405.594 326.391 198 239 248
346.798 414.41 331.67 192 232 245
347.885 451.123 311.972 183 224 242
377.789 178.533 43.7799 98 94 92
377.768 179.532 43.8134 94 91 91
350.824 401.533 300.43 179 214 225
347.752 416.427 331.826 185 230 243
364.42 548.055 117.975 62 62 71
362.093 586.424 136.206 97 100 93
378.834 184.617 42.079 106 92 94
378.929 192.716 39.3608 90 84 98
359.813 284.831 234.808 93 120 83
350.628 482.699 297.262 144 179 189
364.59 561.85 124.506 78 62 68
379.626 177.499 45.915 101 94 91
380.931 212.284 24.1592 81 61 60
358.254 313.051 257.77 115 147 106
357.883 317.941 260.924 126 147 102
349.677 415.429 332.966 200 230 243
350.963 455.245 310.382 182 225 242
350.317 473.125 313.972 171 227 243
357.922 508.416 221.47 80 76 72
366.828 545.234 114.07 51 40 37
364.282 585.532 134.359 102 83 80
362.439 250.859 234.841 97 104 99
358.618 321.886 263.138 125 147 103
358.491 327.881 263.339 123 152 107
356.592 379.523 274.042 127 120 106
354.617 388.809 294.287 173 211 218
351.655 431.964 318.659 173 212 233
351.601 476.282 310.179 188 211 224
359.991 499.793 211.302 43 53 59
365.649 580.66 131.293 83 68 67
362.346 293.773 238.363 123 136 96
359.529 325.901 263.361 139 149 105
358.323 361.696 269.546 129 155 106
352.052 426.703 326.544 164 206 227
382.556 188.616 44.5594 90 58 69
369.102 562.135 118.888 65 53 50
363.479 492.995 207.352 77 73 66
362.301 506.631 217.777 72 70 62
363.191 315.14 258.281 120 143 103
356.043 442.276 312.381 174 218 236
367.212 239.782 239.893 100 89 84
362.179 367.764 270.102 134 152 111
359.031 398.751 299.049 155 199 213
355.634 420.569 332.67 184 232 245
363.371 512.345 227.115 74 72 69
388.008 207.415 24.6133 76 68 75
363.928 344.906 266.433 122 147 101
358.083 448.378 310.769 179 220 240
366.555 493.085 206.623 73 74 68
389.004 207.433 24.7021 83 78 79
369.32 276.143 231.323 109 132 93
369.348 283.208 229.567 105 120 84
365.377 332.005 264.095 102 146 105
363.825 375.724 272.539 88 124 79
357.644 415.574 333.676 186 229 244
376.199 537.88 100.575 85 64 57
390.335 212.624 19.9812 85 88 84
378.18 219.853 154.773 121 96 110
366.354 337.055 263.356 113 141 99
358.597 417.591 333.832 204 235 245
366.666 510.507 224.328 75 68 68
390.618 175.072 35.7523 96 88 91
367.049 347.03 264.776 120 144 99
359.763 409.616 333.652 198 233 247
378.711 526.032 97.3643 121 157 168
378.744 541.161 93.8854 37 38 45
373.374 259.493 223.056 87 79 73
367.052 372.851 270.714 98 134 93
370.718 497.26 204.126 61 61 58
379.655 545.176 94.1084 19 31 26
379.26 547.033 98.1573 41 34 34
363.02 450.467 311.28 182 224 244
362.759 454.394 313.405 186 221 243
369.809 511.632 222.637 21 61 57
380.751 532.134 95.7522 36 44 42
398.025 163.794 -11.2046 135 128 128
374.761 275.411 226.757 110 128 89
374.306 284.298 230.045 87 119 86
373.258 295.972 239.407 117 134 98
368.98 375.885 270.992 75 117 81
367.135 383.209 290.174 167 202 214
363.648 430.183 319.657 161 205 227
371.44 506.865 216.585 69 75 71
370.279 515.471 227.837 107 3 65
394.559 177.143 36.1747 104 108 99
368.262 381.264 289.201 188 214 217
371.275 515.488 227.926 132 48 76
381.51 560.9 103.871 48 48 50
376.255 286.333 230.29 100 122 85
375.447 295.079 237.56 116 135 99
372.372 335.166 263.822 117 144 102
365.131 399.785 331.77 192 232 237
365.88 456.517 311.748 182 218 241
374.963 493.406 202.356 73 67 64
372.599 512.615 224.928 47 56 57
372.14 517.47 229.077 217 205 178
383.116 553.102 98.7139 47 44 41
396.083 199.162 37.0901 84 92 85
377.73 251.273 232.191 95 93 90
374.039 320.336 259.426 102 141 96
373.155 345.176 264.246 126 150 107
372.223 363.949 270.856 123 147 105
365.972 398.734 333.816 189 219 234
366.934 445.473 313.459 174 222 241
374.343 336.201 264.033 124 145 102
373.544 357.044 268.719 132 155 113
367.275 426.083 324.856 169 211 229
374.396 517.612 226.268 181 145 139
386.597 541.641 84.5524 46 49 50
403.354 159.994 -13.881 76 85 85
398.111 189.136 38.9234 100 74 79
400.072 218.137 10.9936 102 109 102
380.941 260.867 216.743 98 82 79
377.034 306.666 251.17 116 138 100
367.384 417.684 336.622 156 199 225
368.762 461.568 312.182 169 221 238
378.088 499.562 199.838 45 38 40
387.368 535.523 88.4219 48 42 39
388.06 232.096 154.073 97 83 83
378.227 305.756 249.234 116 138 101
377.68 310.575 254.379 123 141 102
379.281 498.652 197.902 30 42 43
388.853 541.783 81.7437 59 51 55
383.842 585.125 129.045 124 121 117
404.71 164.815 -7.56283 142 117 121
402.128 215.175 11.0706 110 105 95
388.929 238.109 154.363 82 78 78
382.753 256.801 219.773 77 74 72
382.908 257.87 217.816 62 74 67
376.379 360.061 270.082 129 154 112
370.583 469.598 312.628 161 213 228
387.4 565.007 104.538 79 76 70
384.902 582.146 129.033 108 89 87
385.127 588.283 125.252 130 122 119
401.504 199.429 32.5569 71 59 65
401.595 203.497 30.7001 77 56 64
390.186 234.201 152.326 89 82 79
385.433 269.585 198.364 35 44 28
402.633 201.517 30.7218 79 73 73
403.65 200.535 30.7771 87 78 81
385.033 252.541 228.865 91 94 90
384.793 284.692 224.96 99 120 84
381.053 318.465 259.98 113 138 95
383.571 496.832 195.204 29 41 45
393.067 239.252 152.761 87 74 70
373.334 414.761 338.05 159 211 229
395.084 220.532 145.244 107 92 91
384.29 305.9 248.772 115 138 103
394.436 547.782 85.4642 73 72 64
406.808 192.596 30.7753 101 89 92
387.33 243.25 238.784 90 79 75
383.394 336.4 263.837 108 146 108
382.315 366.2 269.82 105 138 98
376.983 449.723 312.49 176 214 237
386.319 499.813 197.562 38 51 42
391.525 593.599 119.98 92 90 93
410.538 168.516 5.13881 126 114 123
384.195 341.379 265.089 110 148 99
382.523 388.32 296.741 154 202 214
387.441 333.475 264.092 124 147 105
380.866 433.632 317.286 153 211 233
380.946 450.795 312.879 169 212 231
398.604 552.587 94.0398 84 65 53
396.216 568.762 117.506 86 95 88
412.706 212.202 16.9244 80 76 72
400.783 233.631 146.213 90 81 71
392.57 239.414 237.103 101 82 82
389.263 319.716 257.738 121 144 111
388.655 331.566 262.123 125 146 106
385.323 379.61 289.648 172 204 210
388.974 513.083 221.371 172 193 172
395.345 260.299 212.976 91 81 77
400.815 550.695 92.1594 45 44 38
415.745 171.341 13.7362 140 119 118
393.725 295.548 235.177 126 137 97
392.215 308.044 249.549 111 137 90
390.28 340.525 264.593 123 146 104
415.246 204.016 23.891 74 70 65
395.494 242.467 237.47 83 73 72
396.298 284.105 219.931 102 122 86
396.058 287.032 222.023 112 127 90
391.622 332.619 262.422 114 145 106
388.681 374.774 286.76 155 201 186
384.804 431.671 318.57 156 212 223
384.871 432.705 317.608 157 212 225
385.042 453.936 311.344 165 226 243
395.337 492.318 188.049 51 59 55
392.004 511.139 221.571 149 152 117
399.719 574.689 122.044 92 50 66
384.671 396.975 338.424 206 234 244
385.621 427.586 321.511 151 194 213
392.936 514.154 221.76 195 188 189
406.769 540.852 61.1973 52 49 48
395.008 313.06 250.979 120 141 100
389.299 393.408 298.526 146 193 207
386.261 423.431 326.443 147 190 213
387.14 448.976 311.354 168 213 235
395.794 501.817 203.494 68 63 61
419.552 171.343 16.0824 124 125 118
418.182 193.972 26.8085 90 81 82
391.626 376.827 287.094 167 204 209
386.617 394.978 339.53 192 225 237
386.679 417.172 334.295 151 193 210
388.09 446.961 312.371 163 215 241
396.198 504.622 209.657 55 63 52
402.303 593.729 122.948 134 131 125
421.557 165.719 6.01526 113 89 90
392.403 378.773 289.241 162 204 212
399.868 487.571 183.26 49 60 53
408.458 543.41 75.501 41 54 50
403.165 591.678 124.961 134 134 125
389.824 454.955 313.813 171 223 238
421.866 211.437 15.6994 73 52 61
389.672 396.067 338.834 189 235 244
390.914 463.073 311.183 150 204 221
399.383 503.748 207.899 53 62 52
407.466 558.376 106.08 65 45 61
422.77 178.163 23.6408 95 85 82
402.701 290.051 225.731 113 132 90
402.373 292.943 228.818 118 135 100
399.419 318.969 256.602 121 140 100
398.614 331.748 263.011 130 149 110
395.761 373.938 286.353 161 203 184
395.02 383.718 292.662 157 208 213
391.701 477.116 310.746 45 64 85
398.772 358.639 266.991 112 139 97
396.757 373.956 286.442 168 201 188
410.774 550.878 93.0477 88 90 77
408.519 569.122 114.59 93 72 74
408.279 572.049 116.681 76 70 71
424.698 181.197 23.9191 94 88 92
393.926 466.161 310.555 151 197 214
410.672 556.503 104.288 99 83 85
409.247 586.792 125.326 103 91 90
405.764 295.802 235.247 122 140 99
394.485 408.184 338.685 138 190 207
396.16 438.078 313.775 163 212 239
404.362 503.839 208.343 39 46 47
427.643 183.25 24.2526 110 97 97
408.107 244.966 230.639 86 78 75
397.095 445.126 313.103 177 216 235
408.628 488.034 175.011 70 58 55
410.675 254.682 211.12 75 77 65
410.265 287.393 220.28 110 129 90
398.916 423.932 319.545 158 204 224
399.147 438.132 314.042 155 210 234
415.08 558.381 110.772 97 95 85
402.637 387.755 296.493 151 195 205
399.912 423.95 319.634 157 201 221
400.07 429.052 316.815 156 209 224
399.804 454.138 314.667 163 204 221
411.661 490.123 174.349 33 43 43
414.749 579.03 121.52 88 92 86
432.568 176.646 15.4138 116 102 106
431.781 184.393 22.6505 106 91 93
400.796 420.9 321.613 154 199 216
409.32 504.929 208.821 154 126 96
401.812 419.919 321.668 151 199 216
414.006 490.3 170.545 25 41 40
411.611 498.411 195.733 43 53 48
415.432 252.669 214.484 81 80 71
415.6 269.867 209.081 84 117 84
414.819 285.678 214.595 101 129 90
408.451 367.779 269.177 111 145 102
419.021 560.452 111.194 68 62 54
434.726 186.446 22.984 105 92 94
413.229 302.801 240.174 114 135 95
425.624 230.794 127.217 96 82 80
417.026 250.53 219.572 89 89 81
410.528 363.818 269.221 104 152 109
417.3 488.462 167.758 31 46 45
420.688 567.412 113.598 40 41 69
426.966 222.889 125.046 101 83 82
405.927 447.253 314.965 170 211 236
415.594 498.484 196.089 49 46 39
418.951 249.532 220.711 96 91 86
413.042 356.002 265.148 127 155 110
406.789 415.978 322.974 139 193 207
423.947 553.848 102.356 79 78 78
423.576 558.738 105.51 78 86 76
422.48 593.569 110.665 61 62 67
438.546 202.577 21.8849 86 71 76
414.487 339.069 263.671 120 153 111
414.038 356.02 265.237 130 155 110
407.852 417.031 322.101 140 183 202
421.973 272.151 204.704 99 115 80
417.531 309.675 246.826 117 140 102
408.422 407.809 328.856 149 193 204
409.128 437.315 314.897 189 212 236
408.939 450.34 314.337 160 204 227
426.355 551.027 98.4508 96 77 74
420.891 290.484 224.344 110 134 97
416.892 332.216 260.628 120 148 107
410.081 439.332 315.052 161 213 232
432.343 225.154 120.58 98 85 80
424.117 269.225 203.785 92 109 77
422.951 237.139 234.69 86 74 78
415.22 379.157 292.279 161 200 211
429.342 551.082 98.7172 86 66 60
427.362 581.529 114.689 100 93 93
427.453 585.596 112.832 113 94 94
435.408 216.551 110.501 73 64 76
433.812 233.043 125.008 89 77 70
425.349 284.074 209.443 111 127 92
413.196 433.391 315.118 170 214 236
428.57 571.555 114.442 113 99 101
444.925 183.701 21.7807 108 98 104
444.792 210.856 17.7088 84 65 73
419.643 361.019 268.924 116 149 107
414.01 454.499 312.924 157 205 225
429.651 567.576 114.397 107 91 95
445.362 201.634 24.4641 94 79 85
445.32 203.633 24.5312 73 76 80
445.654 208.805 19.7215 85 78 78
420.66 360.039 268.979 115 151 107
414.985 455.516 313.047 158 209 228
437.697 224.387 117.009 97 92 92
415.995 417.247 320.821 148 182 204
425.532 499.665 197.01 84 84 60
431.704 589.807 109.34 92 97 97
447.354 201.671 24.6418 106 88 92
430.399 267.442 201.265 111 106 68
426.899 298.288 234.193 115 137 98
426.112 306.035 241.43 135 139 99
420.266 380.282 291.762 152 186 205
451.085 177.59 -0.994734 105 97 105
424.534 339.286 263.564 103 132 92
433.556 579.71 113.164 102 95 95
441.058 223.584 113.26 104 87 90
426.748 319.637 254.023 124 139 97
424.601 362.11 269.402 103 135 96
434.849 565.739 112.783 101 79 86
453.338 173.701 -2.94218 104 102 93
432.539 282.273 208.007 109 127 88
420.155 417.39 319.185 167 188 203
435.562 570.683 115.031 100 96 97
436.593 593.265 98.8454 75 94 92
451.225 198.675 26.8874 97 75 83
432.072 242.405 232.67 88 75 74
434.86 257.628 198.298 58 77 60
421.184 432.538 315.795 156 207 227
454.542 181.484 4.47209 112 107 113
444.201 224.708 111.569 96 88 86
422.962 475.193 298.378 101 171 180
431.814 497.882 194.49 71 71 57
437.962 584.991 107.714 86 88 87
430.668 322.708 254.479 121 145 102
440.361 548.285 99.5937 89 93 78
436.502 283.345 208.396 112 125 88
435.711 287.06 216.494 100 128 94
438.006 488.514 149.502 16 23 21
435.015 495.379 181.626 36 40 28
447.605 221.906 107.753 112 94 97
432.31 326.635 257.777 130 154 109
432.092 328.563 259.835 128 148 108
431.639 341.482 262.262 116 139 95
427.124 399.131 301.073 111 179 190
425.125 434.609 316.217 153 193 219
441.545 586.291 101.046 95 89 86
457.715 186.27 12.9589 116 107 111
440.234 255.862 194.693 73 74 62
440.329 263.961 191.975 25 58 33
434.288 313.946 249.466 122 141 99
432.31 348.424 264.577 125 154 110
432.201 349.388 265.605 120 154 109
426.043 446.688 314.717 158 203 221
450.168 220.156 101.891 115 94 101
448.749 236.719 114.406 93 69 73
437.498 498.255 186.97 110 90 67
441.801 275.883 195.542 99 108 77
437.066 306.235 242.407 120 145 104
435.298 326.69 258.043 122 151 107
428.262 427.669 316.249 132 165 201
460.155 191.145 18.3704 124 112 109
440.48 242.727 228.404 81 63 76
429.076 448.777 314.055 158 206 221
448.81 528.221 76.5264 96 88 96
460.243 212.969 24.1744 78 76 79
452.675 226.064 106.34 100 88 92
437.639 322.835 255.1 122 147 102
437.618 323.834 255.134 123 147 104
435.713 367.412 267.56 87 118 82
432.708 383.34 297.994 139 184 201
432.399 410.425 295.913 59 103 168
430.093 447.795 314.111 157 204 218
440.641 499.379 185.279 102 95 94
444.818 257.81 199.186 53 28 30
438.546 344.607 262.984 128 152 108
437.939 356.457 267.369 101 131 94
432.014 442.765 316.112 157 194 213
463.422 204.031 24.1391 100 87 93
435.046 397.243 302.712 103 163 190
434.496 427.255 302.723 111 166 198
450.997 541.684 94.2743 92 82 84
448.904 569.062 112.136 110 100 101
435.639 474.694 291.446 145 186 190
435.53 475.659 292.476 98 179 193
436.315 431.253 304.03 95 147 175
459.596 223.529 96.8177 111 94 94
448.162 251.2 219.339 83 83 74
442.117 351.569 266.561 104 129 93
436.317 457.074 309.968 147 189 201
456.306 524.528 72.0367 55 59 60
467.533 198.108 24.2931 110 94 94
458.99 231.975 113.136 129 96 109
452.571 271.351 188.299 86 105 68
439.735 477.835 289.911 44 1 58
458.958 522.813 65.1789 62 61 62
450.904 246.118 223.42 85 73 66
445.864 336.811 261.347 123 149 109
456.577 543.65 98.8563 82 68 70
458.491 533.959 90.6459 69 59 58
456.641 562.442 105.555 93 87 87
455.95 265.516 185.377 60 95 56
452.906 287.475 215.017 113 130 93
446.407 371.538 270.662 62 124 146
457.84 569.596 101.897 102 93 92
472.108 217.185 25.3744 106 97 90
461.201 241.036 142.784 140 127 132
456.579 274.456 187.759 86 108 74
453.002 292.172 224.233 116 134 100
463.601 233.554 128.668 141 126 128
454.51 243.017 228.652 86 92 97
457.963 264.553 185.522 58 86 48
449.826 337.883 261.736 125 149 104
449.267 355.799 264.33 99 133 97
446.572 373.867 290.85 134 181 197
444.642 468.828 293.04 131 182 192
454.97 493.115 172.262 29 36 40
461.764 533.12 87.8924 42 59 61
474.556 208.334 22.2638 96 82 84
449.723 368.701 267.841 87 124 92
463.769 527.495 77.8252 68 63 62
460.551 553.416 108.595 91 99 93
461.525 554.433 108.717 96 102 90
476.505 210.369 22.5085 107 105 96
447.696 469.917 292.345 150 184 193
463.795 578.139 89.668 126 110 110
478.26 195.575 17.1169 100 98 99
478.218 197.573 17.184 103 90 93
453.424 351.91 263.556 108 129 96
463.781 554.576 105.909 91 82 72
464.189 568.847 98.4142 113 108 107
479.517 191.667 15.0807 120 101 106
479.15 200.589 17.3734 103 87 91
459.824 248.28 224.286 87 74 73
454.441 350.929 263.611 104 128 94
454.377 353.927 263.712 109 129 98
454.056 364.883 265.076 91 124 88
450.178 392.555 302.881 109 187 190
468.278 523.747 73.069 76 86 88
468.748 527.586 78.2694 44 46 65
481.53 190.704 15.2248 120 103 109
469.626 236.326 139.345 129 117 112
457.754 322.27 254.852 118 144 105
457.429 329.194 257.078 117 145 103
456.156 363.955 264.225 96 124 92
452.212 390.593 302.992 113 133 173
481.22 210.354 25.9391 105 89 91
463.062 286.728 213.881 108 127 91
461.044 298.013 234.193 121 139 101
459.23 316.434 250.758 115 140 99
453.229 389.612 303.047 104 146 156
469.593 548.953 98.1877 82 84 88
483.12 206.323 27.9736 108 94 94
460.505 329.284 256.349 125 147 102
454.486 407.493 307.81 116 173 191
465.842 246.391 224.752 67 57 47
461.172 332.194 259.525 120 141 101
455.885 472.167 290.136 132 174 183
473.679 521.611 80.5032 93 87 83
456.931 423.834 299.565 112 156 183
483.938 220.625 49.6481 125 101 107
467.855 245.428 224.896 73 84 80
459.391 380.099 292.206 130 182 193
457.759 406.654 305.057 113 167 177
473.62 547.028 98.4759 91 84 86
474.637 546.047 98.5312 76 86 87
481.683 220.597 108.715 129 113 117
478.06 236.279 146.117 130 122 119
473.202 276.659 192.322 90 103 72
473.092 277.623 193.352 93 105 77
462.639 376.227 290.347 124 162 183
487.481 220.521 54.9808 122 112 114
466.723 352.288 260.729 110 135 97
462.848 405.781 304.472 56 135 145
478.125 561.038 101.38 84 73 76
477.928 561.966 103.405 87 73 76
478.468 261.502 170.152 32 63 29
468.393 363.28 262.271 102 125 96
477.361 276.802 190.687 90 103 72
464.475 418.772 306.081 122 188 205
480.658 260.609 168.305 34 24 21
466.34 424.804 306.46 173 218 188
497.464 190.995 16.646 95 103 101
492.784 206.254 65.9945 123 110 114
473.306 340.548 256.877 99 126 88
483.275 553.135 101.556 114 105 112
497.737 195.763 23.8708 115 97 106
477.57 295.519 229.541 115 133 98
474.344 338.567 256.899 100 124 88
478.657 474.32 180.725 101 125 101
470.009 451.332 293.662 108 153 176
476.208 344.599 257.278 106 133 93
470.359 414.814 308.471 136 205 198
470.432 423.913 305.786 138 185 191
471.703 465.358 294.309 137 173 162
488.473 529.508 93.1429 89 84 88
487.838 534.293 99.2834 50 70 72
487.167 549.14 103.768 102 102 116
491.898 227.175 127.934 152 131 130
481.116 299.447 234.012 113 132 97
489.757 266.874 166.319 72 82 49
475.043 465.553 290.593 173 160 155
490.601 269.855 167.504 49 71 46
482.597 316.03 247.79 116 133 101
481.494 342.797 254.669 104 131 92
501.087 208.169 73.8293 135 121 120
493.994 236.57 147.539 140 124 128
492.754 537.381 99.8282 67 63 72
492.28 551.3 102.289 78 75 77
492.131 558.294 102.523 97 85 86
501.801 213.113 76.0768 136 118 119
484.741 313.104 246.872 115 131 95
484.154 323.954 251.223 108 125 90
483.337 349.828 255.081 99 129 92
485.065 327.97 251.445 99 125 90
483.316 401.841 255.918 79 109 114
494.809 534.42 99.9052 122 96 91
491.509 280.79 200.117 92 116 84
490.412 286.397 211.269 103 121 87
485.414 345.868 255.124 109 132 98
478.806 430.895 311.798 42 79 145
509.602 199.978 25.0708 108 105 103
489.983 294.914 225.596 99 125 92
488.275 330.128 248.792 97 126 87
487.798 340.015 252.114 114 132 98
500.331 507.273 77.3322 114 110 101
499.903 235.644 149.033 153 137 138
495.111 277.059 194.277 85 105 73
501.008 234.699 148.093 155 136 136
489.942 337.089 251.196 107 134 96
488.603 400.039 253.309 57 83 47
496.598 279.917 199.532 90 115 80
490.008 359.912 257.033 94 122 87
509.017 210.942 85.6796 142 132 136
496.532 246.255 218.424 118 104 102
504.228 256.389 130.061 20 25 21
493.06 313.391 243.6 93 125 89
509.73 215.886 87.9271 155 133 133
509.469 219.812 90.0521 151 132 133
497.574 248.307 217.584 58 46 66
497.552 249.306 217.618 55 43 57
503.993 259.945 143.225 20 27 16
493.448 325.258 248.073 110 126 87
491.76 362.876 259.303 94 116 82
