ply
format ascii 1.0
element vertex 1449
property float x
property float y
property float z
property uchar blue
property uchar green
property uchar red
end_header
192.885 456.482 204.772 57 56 63
195.451 306.775 226.85 54 1 37
195.433 308.49 227.88 13 25 14
195.144 335.41 239.378 39 28 30
195.125 337.125 240.408 31 29 32
195.087 340.726 240.237 37 32 35
194.935 355.303 237.326 22 22 27
194.912 357.533 237.498 22 22 24
194.827 365.593 237.672 22 14 19
194.774 370.738 234.93 21 17 17
194.665 381.028 235.276 14 21 27
194.647 382.742 236.306 16 23 22
194.509 395.948 233.737 22 27 27
194.409 405.552 231.339 28 29 29
194.327 413.441 227.912 43 40 43
194.247 421.159 226.713 45 36 32
193.914 453.748 205.458 34 50 51
196.436 309.021 209.53 127 77 62
196.451 306.786 226.851 38 6 15
196.443 307.471 229.595 17 19 23
195.95 353.77 239.899 24 24 29
195.879 360.458 240.415 16 16 17
195.746 373.321 236.475 20 18 27
195.737 374.178 236.99 15 22 26
195.557 391.155 237.852 23 24 30
195.362 410.021 231.684 38 37 36
195.252 420.482 229.801 42 42 37
194.876 457.36 205.288 64 52 55
197.404 312.118 210.217 26 29 35
197.21 329.086 240.235 21 18 19
197.201 329.771 242.979 20 21 21
196.908 357.724 241.101 23 31 31
196.817 366.471 238.188 15 14 13
196.727 375.046 237.505 17 31 30
196.708 376.932 236.305 16 30 28
196.656 381.734 238.021 18 24 23
196.491 397.511 236.997 21 21 24
196.39 407.287 232.37 31 25 26
196.272 418.606 231.001 37 37 33
196.171 428.382 226.374 33 41 27
196.064 438.846 218.659 45 51 49
196.05 440.218 218.317 57 49 50
195.837 461.144 202.888 68 54 57
198.474 305.44 209.701 95 99 105
198.394 312.986 210.733 24 9 20
198.396 311.779 232.169 17 12 11
198.341 316.922 235.258 9 6 6
198.303 320.524 235.088 8 8 9
198.136 335.782 246.583 24 22 24
197.978 351.047 240.585 26 42 41
197.979 350.875 242.814 26 40 41
197.97 351.732 243.329 27 39 44
197.828 365.28 242.133 20 21 4
197.809 367.167 240.933 20 21 19
197.727 375.056 237.505 18 35 34
197.471 399.408 235.798 16 20 21
197.319 413.986 232.887 42 38 38
197.142 431.309 223.46 32 46 34
196.819 462.869 203.918 97 72 47
199.479 304.936 210.559 116 127 109
199.415 310.074 231.141 3 8 8
199.353 315.905 231.142 10 8 8
199.344 316.762 231.657 7 6 7
199.33 317.962 233.544 9 4 5
199.303 320.534 235.088 6 5 5
199.293 321.391 235.603 8 6 6
199.31 319.503 242.634 4 8 9
199.263 323.789 245.208 13 8 5
199.099 339.222 248.642 32 35 37
198.904 357.916 244.703 17 28 31
198.699 377.639 239.05 33 28 30
198.471 399.419 235.798 11 24 21
198.409 405.422 233.571 21 20 19
198.18 427.546 225.86 37 42 34
197.866 458.421 203.574 49 41 46
200.374 315.066 207.304 17 20 34
200.341 318.324 205.762 14 10 19
200.284 323.64 206.621 3 8 7
200.263 323.972 242.979 5 7 3
200.235 326.372 246.752 11 14 17
200.208 328.943 248.297 18 29 28
200.076 341.29 251.044 35 41 45
199.91 357.239 247.791 20 22 21
199.747 373.018 240.936 20 32 30
199.538 392.912 238.884 20 18 25
199.263 419.323 233.747 35 39 39
199.114 433.902 225.005 49 51 51
199.056 439.562 221.405 69 58 53
201.293 322.794 206.107 4 9 9
200.91 357.25 247.791 25 30 23
200.9 358.107 248.306 21 34 26
200.61 386.062 240.597 21 22 18
200.581 388.979 237.682 33 21 19
200.481 398.41 237.514 13 19 22
200.181 427.395 228.09 37 37 33
200.152 430.139 227.405 47 49 45
200.123 432.883 226.72 46 49 48
199.837 461.186 202.89 54 41 42
202.393 313.372 206.276 75 69 64
202.274 324.691 204.907 3 10 9
202.167 332.564 253.958 34 42 40
202.067 341.996 253.789 45 43 41
201.79 368.751 244.194 28 32 31
201.772 370.466 245.223 21 23 24
201.662 381.099 241.111 9 17 16
201.49 397.564 237 13 18 23
201.305 415.228 234.776 30 31 30
201.152 430.15 227.406 48 47 45
201.003 444.729 218.664 52 48 47
203.287 323.502 203.021 4 12 12
203.26 326.073 204.565 4 9 9
203.255 326.416 205.937 5 7 9
203.162 332.917 255.331 29 33 35
202.762 371.334 245.738 14 22 23
202.724 375.107 243.339 19 20 20
202.481 398.432 237.515 9 19 19
202.434 402.89 237.859 9 22 18
202.171 428.273 228.606 41 40 36
202.075 437.535 224.836 54 48 47
201.984 446.454 219.694 40 49 44
201.837 461.207 202.891 42 36 36
201.828 462.065 203.406 50 43 41
204.188 335.188 156.377 132 142 149
204.421 310.649 206.962 62 63 81
204.237 327.969 209.197 5 5 5
204.2 331.398 211.256 2 3 6
204.201 331.226 213.485 4 3 7
204.163 332.755 257.561 27 31 34
204.029 345.618 253.62 25 39 33
204.02 346.476 254.135 26 36 30
203.777 369.972 246.082 19 26 30
203.715 375.975 243.854 16 20 20
203.691 378.204 244.026 8 17 17
203.643 382.835 242.141 12 14 11
203.562 390.725 238.713 17 18 25
203.534 393.297 240.258 11 21 25
203.4 406.159 236.317 16 21 26
202.818 462.932 203.921 53 47 42
205.145 339.142 157.579 67 88 101
205.397 313.061 204.905 52 83 76
205.268 325.409 201.822 5 10 12
205.237 327.979 209.197 5 5 6
205.2 331.409 211.256 1 4 6
205.144 334.481 258.591 24 31 28
205.116 337.225 257.905 30 30 27
205.039 344.599 255.335 21 27 27
204.829 365.009 246.595 27 31 28
204.787 368.953 247.797 19 28 31
204.758 371.697 247.112 22 26 24
206.259 326.277 202.337 4 10 10
206.218 329.877 207.998 4 5 4
206.196 329.69 256.875 28 19 17
206.106 338.092 258.421 27 27 21
205.949 353.185 254.652 15 27 27
205.653 381.827 243.857 12 21 19
205.634 383.713 242.657 14 20 20
205.581 388.859 239.914 14 18 25
205.491 397.434 239.231 20 21 21
205.244 421.101 234.779 25 26 25
205.225 422.987 233.579 26 27 28
205.181 427.276 230.322 32 35 32
204.82 462.609 208.381 40 56 54
204.821 462.265 212.84 74 19 17
204.812 462.95 215.584 156 146 114
207.116 342.08 154.666 72 89 88
207.287 323.716 200.793 15 12 20
207.246 325.071 252.929 8 8 8
207.237 325.929 253.444 11 7 8
206.978 350.451 255.338 19 26 29
206.835 364.171 251.912 28 25 26
206.826 365.029 252.427 31 28 27
206.354 410.477 238.892 17 26 28
206.297 415.966 237.522 27 26 29
206.162 429.001 231.352 40 34 35
206.057 439.292 225.867 34 32 26
206.038 441.006 226.897 28 35 28
205.82 462.448 210.611 46 45 33
205.812 462.96 215.585 133 121 104
208.078 345.691 154.496 52 56 55
208.193 332.471 203.712 3 7 5
208.132 338.302 203.714 3 4 6
208.075 343.618 204.573 6 4 9
208.058 344.988 210.061 8 9 9
208.186 330.568 257.39 14 8 10
208.163 332.798 257.563 16 10 14
207.974 350.632 258.94 23 35 35
207.316 414.089 238.723 23 25 25
207.277 417.863 236.323 27 26 34
207.224 423.008 233.58 27 29 28
207.114 433.642 229.468 31 35 30
207.076 437.415 227.068 30 34 28
209.258 326.481 200.109 10 15 21
209.06 344.482 216.75 8 8 9
209.061 344.31 218.979 4 9 7
208.864 361.448 252.598 18 30 32
208.677 379.457 245.915 16 23 21
208.606 386.317 244.203 21 21 21
208.234 421.989 235.296 28 27 27
210.239 328.206 201.139 10 17 22
210.197 332.15 202.341 4 7 12
210.064 344.322 213.149 4 9 12
210.06 344.493 216.75 8 7 9
210.024 347.577 223.268 4 5 5
209.686 378.61 245.401 12 23 21
209.658 381.182 246.945 17 18 25
209.515 395.074 241.29 17 26 25
209.482 398.161 241.977 18 21 27
209.406 405.536 239.407 21 23 21
209.387 407.25 240.436 19 26 26
209.278 417.712 238.553 25 26 26
208.993 445.671 219.182 21 34 33
208.858 458.878 210.783 35 40 39
211.162 337.835 152.094 149 155 144
211.143 339.722 150.894 140 128 128
211.077 345.895 152.268 56 69 79
211.094 341.763 205.774 12 15 25
211.006 349.303 224.298 8 7 10
210.668 380.163 248.661 12 16 27
210.553 391.483 241.461 18 21 19
210.278 417.722 238.554 17 23 25
210.114 433.674 229.469 18 19 23
209.849 459.746 211.298 39 45 42
212.067 346.935 150.554 76 108 103
212.042 348.818 161.016 49 72 92
212.024 350.533 162.045 26 30 25
212.139 337.831 198.742 12 22 43
212.13 338.689 199.257 8 21 42
212.103 341.088 203.031 8 21 35
212.084 342.803 204.06 16 22 36
212.072 343.658 210.406 16 10 26
212.052 345.027 221.725 6 6 12
212.033 346.741 222.755 5 6 11
212.024 347.599 223.269 5 7 11
212.045 343.986 258.425 13 14 15
211.697 377.429 249.346 15 20 20
211.688 378.287 249.861 16 18 25
211.562 390.637 240.947 19 19 19
211.543 392.351 241.976 15 23 21
211.515 395.095 241.291 20 21 24
211.396 406.414 239.923 18 21 22
211.354 410.358 241.124 24 23 25
211.036 441.403 222.44 20 25 23
210.974 447.578 217.983 28 37 32
210.849 459.584 213.528 31 47 49
210.84 460.441 214.043 29 47 38
213.051 347.972 160.501 104 94 93
213.034 349.514 163.76 28 34 20
213.094 341.784 205.775 21 29 43
213.082 342.639 212.121 23 21 37
213.015 348.466 223.785 9 15 21
212.931 356.182 228.417 10 15 22
212.829 365.612 234.08 18 24 27
212.768 370.752 248.83 17 24 27
212.625 384.3 247.634 13 19 19
212.506 395.963 241.806 16 26 26
212.244 421.002 237.012 32 22 23
212.017 443.301 221.241 19 29 25
211.876 457.195 209.755 20 24 21
211.831 461.309 214.558 59 27 25
214.151 339.069 148.151 149 118 144
214.133 340.783 149.181 126 116 128
214.086 345.242 149.525 122 131 137
214.133 338.539 195.656 37 51 64
214.134 338.367 197.886 29 49 65
214.073 343.335 214.866 20 27 45
213.996 350.191 224.815 14 21 36
213.997 350.019 227.044 15 21 36
213.931 356.192 228.418 13 17 31
213.758 371.62 249.345 18 24 24
213.711 376.078 249.69 13 21 20
213.668 380.195 248.662 21 19 24
213.406 405.578 239.409 11 19 19
213.288 416.724 240.27 16 23 18
213.162 429.074 231.356 14 21 22
213.105 434.562 229.985 12 17 24
212.964 448.457 218.499 27 35 34
215.141 340.109 146.437 140 169 172
215.042 348.85 161.017 52 68 56
215.084 342.834 204.061 39 39 53
215.085 342.49 208.52 39 40 52
215.07 343.344 220.697 21 32 48
214.969 352.602 228.589 15 28 41
214.82 366.318 236.825 16 17 24
214.749 372.488 249.861 15 20 21
214.162 429.085 231.356 13 20 21
214.027 442.292 222.957 20 27 26
213.829 461.674 210.1 24 42 45
213.811 463.389 211.13 68 19 21
216.132 340.976 146.952 172 193 196
216.123 341.662 149.697 165 190 192
216.057 348.007 148.841 129 134 134
216.038 349.894 147.641 124 125 122
216.02 351.436 150.9 112 110 108
216.042 348.861 161.018 43 43 36
216.09 341.986 209.378 36 43 57
216.082 342.671 212.122 36 44 58
216.052 345.069 221.727 22 35 52
216.025 347.468 225.501 21 31 49
215.955 353.812 230.476 20 27 46
215.865 362.387 229.793 16 23 38
215.811 367.186 237.34 11 19 25
215.711 376.1 249.691 11 17 19
215.64 382.96 247.978 12 15 15
215.597 387.076 246.95 11 18 14
215.316 414.001 240.956 12 18 19
215.095 435.613 228.272 12 18 23
214.886 456.369 209.242 31 28 28
217.141 340.13 146.438 212 212 200
217.103 343.731 146.268 197 205 197
217.038 349.041 164.62 19 15 21
217.122 339.773 191.714 54 65 80
217.102 341.141 203.033 41 45 63
217.094 341.826 205.777 41 43 61
216.974 352.108 229.447 28 34 50
216.819 366.511 234.596 16 17 33
216.802 368.054 237.855 5 18 25
216.535 393.089 244.723 10 20 23
216.133 431.85 230.672 10 15 21
216.056 439.397 225.872 16 24 23
218.134 338.409 197.888 56 56 79
218.124 339.266 198.402 53 56 76
218.09 342.007 209.379 39 44 64
218.064 344.234 215.382 35 45 66
217.937 355.548 231.507 27 34 58
217.899 358.977 233.566 23 32 50
217.872 361.549 235.11 20 27 44
217.359 409.906 241.985 8 15 14
216.77 467.539 204.273 72 23 21
219.12 342.382 140.78 218 218 211
219.036 350.27 143.184 125 114 125
219.027 351.127 143.698 128 126 123
219.052 347.863 162.734 24 38 33
219.125 339.795 185.884 40 72 69
219.122 339.966 189.485 58 71 83
219.122 339.794 191.715 62 65 84
219.133 338.592 195.659 66 64 81
219.12 339.62 199.775 48 55 74
219.062 344.071 223.443 40 45 61
219.002 349.557 227.904 39 41 60
218.941 355.216 230.135 35 39 60
218.904 358.645 232.194 29 35 54
218.782 369.962 236.656 9 20 28
218.764 371.676 237.686 14 20 23
218.754 372.534 238.201 16 22 20
218.692 377.846 250.722 15 14 15
218.659 381.104 249.179 14 14 14
218.549 391.738 245.067 11 20 19
218.525 393.967 245.239 23 20 22
218.468 399.456 243.868 15 18 25
218.359 409.917 241.985 4 15 16
218.349 410.774 242.5 5 15 16
219.999 353.709 145.243 108 114 122
220.069 343.741 216.241 41 46 66
220.034 346.653 224.988 42 42 63
220.024 347.511 225.503 43 42 63
219.82 366.371 236.827 13 21 42
219.454 400.838 243.526 13 17 25
219.387 407.183 242.671 8 13 19
219.244 421.076 237.016 14 14 16
219.205 424.849 234.616 9 18 25
218.925 452.293 216.102 23 26 26
221.025 351.492 139.241 125 117 137
221.141 338.1 190.686 60 79 86
221.132 338.957 191.201 62 72 86
221.132 338.785 193.43 62 67 85
221.102 341.183 203.035 48 52 71
220.891 359.694 236.311 24 36 56
220.754 372.727 235.972 9 19 26
220.587 387.986 247.467 11 15 20
220.487 397.59 245.069 13 18 24
220.143 430.863 232.389 14 19 22
219.807 464.141 202.215 23 28 27
219.716 473.06 197.073 135 108 83
222.054 348.759 139.926 139 151 175
222.149 337.425 187.942 56 54 76
222.109 340.162 210.581 47 50 74
222.088 341.875 217.442 46 47 71
222.069 343.59 218.471 47 43 66
222.043 345.817 224.474 47 44 64
221.687 378.392 249.866 22 12 19
221.587 387.996 247.468 9 15 21
221.559 390.74 246.783 6 16 23
221.53 393.484 246.098 11 16 21
221.454 400.859 243.527 23 20 23
221.359 409.948 241.987 10 14 14
221.157 429.501 232.732 10 22 23
220.715 473.243 194.844 66 20 14
222.987 355.115 139.071 142 175 178
223.01 352.367 151.418 72 109 113
223.021 351.165 155.362 52 46 83
223.121 339.49 202.006 53 53 74
223.109 340.173 210.582 50 52 74
223.078 342.743 217.957 48 46 72
223.002 349.427 230.135 45 47 74
222.993 350.284 230.65 45 46 72
222.937 355.428 233.739 30 47 67
222.918 357.143 234.768 29 46 66
222.692 377.888 250.724 14 12 18
222.53 393.495 246.098 9 16 18
222.249 420.593 237.874 16 16 18
222.157 429.512 232.732 7 21 20
221.887 455.926 215.933 31 30 27
221.724 472.396 194.33 9 24 27
223.987 355.125 139.072 166 186 192
224.01 352.378 151.419 88 115 116
224.1 341.041 211.097 56 53 74
224.082 342.583 214.356 52 52 73
224.021 347.723 229.106 49 49 74
223.946 354.581 233.224 35 46 71
223.928 356.296 234.254 31 47 68
223.829 365.556 236.315 28 34 54
223.81 367.442 235.115 22 32 51
223.745 373.443 238.718 3 14 21
223.687 378.413 249.867 11 14 16
223.616 385.273 248.154 12 15 23
223.224 423.005 235.818 17 17 18
222.944 450.621 215.075 12 23 19
222.934 451.478 215.589 15 25 22
222.925 452.336 216.104 18 27 25
222.763 468.633 196.73 30 34 33
224.996 354.451 136.328 205 209 200
225 353.418 149.705 104 121 115
224.973 355.817 153.478 62 71 69
225.113 340.023 206.981 42 51 77
225.118 339.337 210.068 39 52 77
225.091 341.909 211.612 57 55 73
225.078 342.764 217.958 59 48 75
225.048 345.334 225.333 49 53 71
225.011 348.591 229.621 52 49 75
224.843 364.194 236.658 30 39 60
224.81 367.453 235.115 25 35 53
224.687 378.424 249.867 8 14 15
224.425 403.635 242.844 14 14 16
224.396 406.379 242.158 14 14 14
224.325 413.239 240.446 20 15 14
224.248 420.614 237.875 16 17 18
224.104 434.678 229.991 11 22 29
224.021 443.084 219.875 32 22 27
223.726 472.073 198.789 128 80 75
226.044 349.83 138.214 215 215 212
225.973 355.828 153.479 59 62 70
226.048 345.344 225.333 57 53 74
225.937 355.46 233.74 33 48 73
225.89 359.746 236.314 35 45 70
225.732 374.492 242.835 4 8 12
225.738 373.633 248.151 5 7 12
225.72 375.175 251.41 6 15 12
225.658 381.178 249.183 21 13 14
226.988 354.985 141.303 200 201 195
226.981 355.153 150.735 61 96 88
227.14 338.335 188.46 63 71 88
227.152 336.789 196.863 54 64 86
227.102 341.246 203.038 50 53 77
227.082 342.615 214.357 53 52 73
227.07 343.47 220.703 48 49 70
226.738 373.644 248.152 4 8 13
226.696 377.588 249.354 5 10 14
226.639 383.076 247.983 10 13 13
226.234 422.007 237.534 6 16 15
226.045 440.704 221.933 11 21 24
225.943 450.653 215.076 17 19 19
225.744 470.379 197.761 7 22 25
228.149 337.489 187.945 60 73 84
228.135 338.861 187.603 66 78 88
228.14 338.174 190.69 61 73 92
228.093 341.942 205.783 43 52 78
228.099 341.255 208.869 41 51 80
228.091 341.768 213.843 49 53 74
228.048 345.193 227.564 64 53 75
227.792 369.027 238.376 20 33 51
227.736 374.171 241.464 5 9 18
227.587 388.059 247.471 7 9 10
227.001 445.003 218.676 13 14 20
228.971 356.204 149.021 62 107 100
229.144 338.014 187.089 68 75 86
229.12 339.553 202.009 54 53 76
229.029 347.091 226.364 53 53 77
229.011 348.633 229.623 39 50 76
228.742 373.494 244.551 6 12 14
228.615 385.326 248.157 9 9 13
228.549 391.671 247.301 9 15 14
228.267 418.769 239.077 8 19 13
228.166 428.718 232.22 17 17 18
227.973 447.757 217.992 12 20 23
227.807 464.225 202.219 28 25 23
227.769 467.827 202.048 5 24 26
230.142 338.369 182.63 62 64 63
230.143 338.197 184.86 69 70 76
230.078 342.817 217.96 50 49 73
230.038 346.244 225.85 55 53 76
229.918 357.216 234.771 44 54 74
229.745 373.334 240.95 9 13 26
229.719 375.39 249.183 8 9 14
229.539 392.711 245.587 11 14 13
229.344 411.405 241.648 8 13 13
229.205 424.955 234.621 13 17 16
231.152 337.522 182.116 48 81 93
231.143 338.207 184.86 72 73 74
231.14 338.205 190.691 58 76 94
231.141 338.033 192.92 58 72 90
231.142 337.689 197.379 47 61 83
231.12 339.574 202.01 48 56 76
231.111 340.431 202.525 47 56 74
231.112 340.259 204.755 47 55 75
230.974 352.083 231.683 47 53 77
230.955 353.798 232.713 46 52 77
230.927 356.37 234.257 39 54 75
230.745 373.345 240.951 9 14 29
230.719 375.4 249.183 9 10 12
230.577 389.12 245.758 9 9 6
229.944 450.523 217.308 15 26 21
229.76 468.705 202.564 49 12 19
232.143 338.218 184.861 64 76 73
232.096 341.123 216.932 56 49 75
232.061 344.208 223.45 55 54 76
232.047 345.408 225.336 54 51 78
231.946 354.666 233.228 44 52 78
231.71 376.268 249.699 6 10 7
231.701 377.125 250.213 6 9 5
231.648 382.271 247.471 9 10 10
231.39 407.139 239.075 5 8 10
231.344 411.426 241.649 8 14 12
231.224 423.089 235.822 11 17 14
231.093 435.954 226.05 12 18 19
230.876 457.223 211.994 17 30 24
230.769 467.858 202.05 11 26 26
233.144 338.056 187.09 58 85 98
233.132 338.912 193.436 58 68 88
233.133 338.567 197.895 53 58 82
233.1 340.963 213.331 51 49 77
233.096 341.306 214.703 53 49 76
233.001 349.532 230.14 53 54 79
232.89 359.82 236.317 41 54 79
232.881 360.677 236.832 44 53 79
232.871 361.534 237.347 45 53 80
232.443 402.005 241.818 13 13 14
232.353 410.579 241.135 9 12 11
232.025 442.654 220.736 3 16 15
231.925 452.258 218.338 14 30 29
231.807 464.267 202.221 10 29 23
231.769 467.869 202.05 11 32 33
231.74 470.613 201.365 87 78 74
234.132 338.75 195.666 54 63 87
234.096 341.316 214.703 50 47 77
234.029 346.971 228.596 49 54 79
233.946 354.687 233.229 46 52 82
233.824 366.004 237.692 33 54 76
233.781 370.12 236.664 19 46 69
233.744 373.549 238.723 7 26 48
233.726 375.091 241.982 10 14 30
233.605 386.408 246.444 4 9 7
233.557 391.039 244.559 4 10 9
233.538 392.753 245.589 5 11 10
233.399 406.303 238.561 3 12 12
233.371 409.047 237.876 2 6 9
233.352 410.762 238.906 9 10 8
233.344 411.447 241.65 8 14 12
233.252 420.366 236.508 5 14 19
233.002 444.894 220.909 10 15 18
235.148 337.562 187.949 78 80 100
235.06 344.412 221.222 53 54 79
235.061 344.239 223.451 53 55 81
234.81 367.386 237.349 32 55 77
234.772 370.987 237.179 16 47 67
234.753 372.702 238.209 12 36 56
234.496 396.88 244.561 7 14 11
234.443 402.026 241.819 15 14 13
234.286 417.118 238.051 4 17 15
233.759 468.919 200.337 3 40 35
236.14 338.258 190.693 70 80 100
236.12 339.626 202.013 56 60 81
236.108 340.482 208.359 51 58 79
236.108 340.31 210.588 49 57 78
236.1 340.995 213.332 47 56 79
236.061 344.25 223.452 54 55 83
235.992 350.421 230.656 55 59 83
235.927 356.422 234.26 48 57 84
235.685 378.884 245.414 2 9 15
235.686 378.712 247.643 2 8 12
235.213 424.161 234.109 6 16 14
235.016 443.543 221.252 9 16 15
234.759 468.758 202.567 64 53 26
237.151 337.585 182.119 191 204 192
237.098 341.35 208.874 48 57 79
237.099 341.178 211.103 46 58 79
237.061 344.26 223.452 55 56 83
237.038 346.145 228.083 52 58 82
237.002 349.402 232.372 50 59 85
236.964 353.004 232.201 46 64 85
236.688 378.896 239.583 9 15 35
236.413 404.963 238.905 6 14 12
236.39 407.192 239.078 3 9 10
236.261 419.54 235.994 5 16 16
235.816 463.28 203.938 23 27 24
238.087 342.044 217.449 51 55 80
238.048 345.299 227.569 55 59 84
238.029 347.013 228.598 54 58 87
237.927 356.443 234.261 51 59 88
237.833 365.188 237.179 44 61 86
237.772 371.019 237.181 34 49 77
237.543 392.453 244.219 4 8 7
237.175 427.955 231.71 8 13 13
239.119 339.83 199.785 59 58 84
239.12 339.658 202.014 59 59 83
239.102 341.028 207.503 56 58 82
239.002 349.423 232.372 53 61 86
238.917 357.311 234.776 53 61 87
238.88 360.913 234.605 52 62 88
238.833 365.199 237.179 44 61 88
238.81 367.428 237.351 43 58 84
238.8 368.285 237.866 42 55 83
238.772 371.03 237.181 36 51 80
238.725 375.488 237.525 29 44 64
238.705 377.375 236.325 25 37 60
238.585 388.52 243.017 2 5 6
238.476 398.809 243.363 10 10 10
238.413 404.984 238.906 8 11 15
238.285 417.332 235.823 11 12 12
238.141 431.224 230.168 17 12 17
238.016 443.402 223.483 10 16 18
237.906 454.208 217.141 15 31 28
240.134 338.987 187.609 75 79 91
240.13 339.158 191.21 67 69 91
240.121 339.324 206.474 60 57 84
240.09 341.894 213.849 65 57 81
240.002 349.434 232.373 52 63 86
239.945 354.75 233.232 56 62 91
239.862 362.465 237.865 60 64 91
239.791 369.154 238.381 42 54 84
239.715 376.356 238.041 19 42 67
239.641 383.214 242.159 6 10 15
239.505 396.075 244.049 8 9 10
239.342 411.855 237.194 4 5 14
239.001 444.957 220.912 6 17 22
241.152 337.455 184.35 136 122 141
241.047 345.502 225.341 56 58 85
241.029 347.045 228.6 74 58 85
241.02 347.902 229.115 67 60 86
240.973 352.189 231.688 43 62 86
240.852 363.333 238.38 57 63 90
240.734 374.652 237.012 26 55 78
240.57 389.913 242.676 6 5 7
240.523 394.371 243.02 7 6 8
240.212 424.385 231.882 2 10 11
240.093 436.048 226.054 14 14 12
240.001 444.968 220.912 2 21 24
239.778 467.096 201.54 4 14 28
239.758 468.982 200.34 5 3 33
242.139 338.494 188.467 68 68 82
242.12 339.69 202.016 69 62 83
242.099 341.23 211.106 57 56 79
242.086 342.258 215.222 59 56 83
242.05 345.343 221.74 59 56 83
242.002 349.455 232.374 54 60 84
241.927 356.486 234.263 56 63 87
241.603 386.837 241.989 6 7 10
241.523 394.382 243.021 7 7 8
241.462 400.213 243.022 8 10 10
241.442 402.099 241.822 13 11 10
240.943 450.638 217.313 18 30 22
240.777 467.278 199.311 16 24 26
240.768 468.136 199.825 19 13 20
243.147 337.301 198.243 63 56 78
243.137 338.158 198.757 61 58 79
243.047 345.524 225.342 55 54 81
243.019 348.095 226.886 56 56 80
242.899 359.068 235.807 58 58 80
242.852 363.354 238.381 52 60 84
242.672 380.504 237.014 23 46 69
242.626 384.79 239.588 10 15 37
242.589 388.219 241.647 8 8 12
242.579 389.076 242.162 7 7 9
242.389 407.428 236.851 5 9 10
244.098 342.805 179.38 50 30 67
244.139 338.342 190.697 56 47 67
244.099 341.079 213.336 54 54 79
244.086 342.279 215.223 60 55 77
244.046 345.534 225.342 54 53 78
243.964 352.905 234.434 56 58 77
243.936 355.649 233.749 53 57 75
243.88 360.793 236.837 50 56 76
243.791 369.195 238.383 61 68 88
243.682 379.657 236.5 29 53 81
243.663 381.371 237.53 32 41 71
243.56 390.974 240.963 7 9 8
243.532 393.546 242.507 6 7 7
243.494 397.147 242.336 8 9 8
243.251 420.644 234.283 18 11 12
243.054 439.854 223.656 19 8 34
245.119 339.721 202.017 63 49 70
245.01 348.802 229.631 49 46 66
244.909 358.06 237.523 52 49 66
244.899 358.917 238.038 48 50 67
244.881 360.631 239.067 49 46 67
244.852 363.375 238.382 54 50 72
244.705 377.438 236.328 42 68 92
244.606 386.698 238.389 11 26 48
244.597 387.555 238.904 10 18 40
244.522 394.586 240.793 6 7 8
244.432 403.16 240.109 27 9 9
244.322 413.794 235.997 11 8 9
244.251 420.654 234.284 26 11 10
243.906 454.099 219.374 4 22 52
246.114 340.937 186.412 34 16 25
246.119 339.732 202.018 57 49 63
246.086 342.3 215.224 61 51 76
246.076 343.157 215.739 66 50 76
245.898 359.099 235.809 48 44 56
245.733 374.705 237.014 67 76 98
245.531 393.739 240.278 5 4 10
245.369 409.346 235.653 4 10 10
245.331 412.947 235.482 8 7 8
245.034 441.934 220.228 22 17 50
247.096 343.353 172.693 54 84 99
247.131 338.887 195.672 41 22 43
247.041 346.253 222.257 41 38 60
246.991 350.537 230.662 44 22 43
246.982 351.395 231.177 44 21 39
246.705 377.459 236.329 56 75 96
246.131 432.166 230.687 5 15 29
245.991 445.888 221.43 48 25 69
248.137 338.211 198.76 32 25 33
248.102 341.123 207.507 53 49 67
247.954 353.977 232.721 24 20 27
247.681 379.699 236.502 52 74 99
247.662 381.586 235.302 52 73 103
247.568 390.331 238.22 15 25 51
246.954 449.5 221.26 65 10 87
249.076 344.742 184.013 28 27 48
249.079 343.191 209.909 53 50 74
249.08 343.019 212.139 58 50 75
248.451 401.488 239.082 4 8 10
248.413 405.089 238.911 4 7 11
248.321 414.008 233.769 8 10 8
248.288 417.267 232.227 5 10 10
248.259 420.011 231.541 2 10 11
248.231 422.755 230.856 5 9 9
247.991 446.081 219.201 9 20 69
247.981 446.939 219.716 21 16 65
250.118 339.946 199.79 27 23 46
250.111 340.287 206.993 45 39 47
250.012 348.856 223.803 23 19 45
249.963 353.313 229.978 21 21 41
249.79 369.259 238.386 44 39 62
249.743 373.717 238.731 63 64 84
249.705 377.319 238.56 63 78 97
249.469 399.784 238.053 4 4 11
249.24 421.908 230.342 6 9 9
249.188 426.882 229.829 4 9 7
249.028 442.49 219.372 19 25 63
248.971 447.979 218.002 24 19 77
248.916 452.95 223.32 49 77 101
251.087 344.08 175.439 72 135 146
251.047 347.507 183.329 34 31 47
251.1 341.671 200.82 34 21 40
251.092 342.184 205.794 50 37 52
251.07 344.069 210.425 54 51 76
251.061 344.754 213.169 56 49 74
251.039 346.639 217.8 31 34 59
251.02 348.354 218.83 26 22 51
251.011 349.211 219.344 24 18 47
250.993 350.926 220.374 24 19 43
250.966 353.153 226.377 26 20 43
250.926 356.58 234.267 24 31 47
250.917 357.438 234.782 25 31 49
250.907 358.295 235.297 24 31 50
250.889 360.009 236.326 18 27 48
250.526 394.306 239.424 14 24 53
250.46 400.652 238.568 5 10 13
250.36 410.256 236.17 9 8 9
250.187 426.892 229.83 5 10 9
250.15 430.321 231.889 13 16 36
252.076 345.292 171.496 166 204 210
252.087 344.091 175.44 133 186 187
252.042 348.033 182.472 37 29 46
252.033 348.89 182.987 26 24 40
252.109 340.824 200.306 28 28 36
252.082 343.052 206.309 44 43 55
252.07 343.908 212.655 53 51 78
251.93 356.939 218.147 23 21 47
251.917 357.448 234.782 28 37 56
251.871 361.562 239.585 29 37 55
251.762 372.024 237.702 37 47 72
251.036 441.999 214.4 12 14 50
250.97 448.172 215.774 48 47 89
250.952 449.886 216.803 33 27 81
250.933 451.601 217.833 34 12 74
252.962 354.035 215.231 17 21 43
252.943 355.922 214.031 14 21 42
252.879 361.06 234.612 38 38 52
252.771 371.177 237.188 30 44 70
252.724 375.636 237.532 53 55 80
252.705 377.35 238.562 67 62 86
252.524 394.672 234.966 25 72 91
252.397 406.676 236.341 3 9 10
254.049 347.713 175.27 71 129 167
254.042 346.673 211.971 51 51 83
254.004 350.102 214.03 26 30 65
253.995 350.959 214.544 27 26 59
253.934 356.79 214.546 15 16 39
253.902 359.013 232.211 32 36 44
253.892 359.871 232.726 31 33 46
253.752 372.902 238.218 41 51 73
253.359 410.46 233.942 7 7 12
253.297 416.29 233.944 7 14 13
253.206 425.209 228.801 9 11 23
253.159 429.668 229.146 14 33 45
253.15 430.525 229.661 18 36 50
252.906 454.022 221.607 73 28 98
252.887 455.736 222.637 161 158 151
255.091 342.399 203.566 47 40 46
254.962 354.228 213.002 20 20 49
254.934 356.8 214.547 16 17 39
254.928 356.796 226.209 17 14 24
254.874 361.596 233.756 31 30 46
254.869 361.938 235.128 30 31 49
254.634 384.059 239.079 57 81 98
254.615 385.946 237.879 59 81 100
254.477 399.152 235.311 15 61 82
254.426 403.953 237.027 7 9 29
254.33 413.214 233.257 8 12 10
254.307 415.444 233.429 7 10 12
253.924 452.49 218.349 11 11 73
256.101 341.379 205.282 47 40 49
255.882 360.921 231.012 26 21 30
255.855 363.321 234.786 28 31 49
255.477 399.162 235.311 25 78 94
255.268 419.228 231.03 8 14 16
255.229 423.001 228.63 7 14 26
255.206 425.23 228.802 12 14 38
255.149 430.718 227.432 23 36 60
254.97 448.214 215.776 39 49 89
254.952 449.929 216.805 28 37 90
254.932 451.815 215.605 23 29 84
254.887 455.93 220.408 135 135 136
257.064 344.647 209.571 71 74 97
256.941 356.308 209.574 16 20 51
256.897 360.078 218.836 8 10 25
256.864 362.646 232.042 23 21 40
256.826 366.076 234.101 26 26 44
256.788 369.677 233.931 26 29 42
256.751 373.278 233.761 30 34 48
256.723 375.85 235.305 41 43 63
256.633 384.253 236.851 58 71 94
256.586 388.711 237.195 70 79 103
256.577 389.568 237.71 67 79 106
256.463 400.545 234.969 38 76 92
256.416 405.003 235.314 6 22 46
256.396 406.89 234.114 3 11 32
256.349 411.349 234.458 21 8 9
256.278 418.209 232.745 7 14 16
258.028 349.986 169.613 169 178 186
258.011 351.356 175.102 53 100 110
257.984 353.756 178.876 30 17 27
257.923 358.033 210.604 25 23 47
257.886 361.29 214.893 15 15 32
257.845 364.371 233.072 30 28 45
257.741 374.146 234.276 17 31 48
257.723 375.861 235.305 36 31 59
257.577 389.579 237.711 68 79 108
257.453 401.585 233.255 41 79 97
257.34 412.216 234.973 11 8 6
257.278 418.219 232.746 10 14 17
257.196 426.281 227.089 22 31 51
257.054 440.519 211.144 26 49 76
256.97 448.235 215.777 35 45 91
258.918 358.559 209.747 30 22 48
258.806 368.156 230.673 30 21 46
258.788 369.87 231.703 19 23 40
258.671 380.844 234.793 52 47 78
258.643 383.416 236.337 52 66 89
258.481 398.851 233.941 61 82 109
258.387 407.768 234.63 7 10 32
258.321 414.114 233.774 10 9 10
258.278 418.23 232.746 14 15 19
257.894 455.448 215.436 4 14 79
259.983 353.949 176.647 20 29 45
259.973 354.807 177.162 28 22 47
259.896 360.454 214.379 27 26 45
259.835 365.422 231.359 32 26 53
259.778 370.738 232.218 14 33 59
259.736 374.682 233.419 15 41 72
259.643 383.427 236.338 53 66 89
259.287 417.383 232.232 11 12 18
259.015 444.314 208.745 14 36 60
260.991 353.447 171.674 97 113 131
261.069 344.174 210.43 70 80 111
260.895 360.637 212.15 30 25 48
260.815 367.319 230.159 30 33 57
260.764 372.12 231.876 23 50 73
260.605 387.039 236.168 64 77 100
260.32 414.135 233.775 10 9 11
259.856 459.071 215.267 178 198 178
259.847 459.928 215.782 197 196 185
261.973 354.828 177.163 32 36 59
262.06 344.87 213.175 65 80 106
261.989 351.73 211.462 47 51 84
261.96 354.474 210.776 36 44 79
261.886 361.333 214.895 27 27 47
261.874 362.188 221.24 20 19 45
261.857 363.558 226.729 21 27 46
261.581 389.279 236.34 65 82 106
261.543 392.88 236.17 64 82 109
261.297 416.375 233.948 14 10 16
260.976 448.109 206.346 18 19 60
260.951 450.164 214.579 44 41 88
263.126 338.707 211.801 78 82 96
263.088 342.309 211.631 77 82 114
262.904 359.801 211.636 35 36 62
262.651 382.773 233.595 54 74 99
262.533 393.92 234.456 65 82 110
262.386 407.983 232.402 31 24 62
262.12 434.227 212.002 53 79 84
262.053 440.572 211.146 54 92 114
261.95 450.347 212.35 35 24 78
261.932 451.889 215.609 57 55 102
263.981 354.336 172.19 67 65 97
263.954 356.736 175.964 44 44 73
264.107 340.605 210.602 74 85 121
264.06 344.891 213.175 65 73 105
263.847 364.609 225.015 21 25 41
263.801 368.723 229.818 41 48 68
263.735 374.896 231.192 43 66 89
263.707 377.468 232.736 47 70 99
263.698 378.325 233.251 49 72 102
263.642 383.641 234.11 61 77 106
263.632 384.498 234.625 62 77 107
263.553 392.044 235.656 66 84 111
263.514 395.817 233.256 64 82 111
263.357 410.737 231.717 18 5 36
263.306 415.538 233.434 14 6 7
263.024 443.499 208.232 54 39 85
262.894 455.501 215.439 57 39 98
265.131 338.214 212.659 69 83 109
265.088 342.33 211.632 74 81 114
264.913 358.964 211.122 45 53 75
264.895 360.679 212.152 37 41 69
264.877 362.221 215.411 20 30 72
264.472 399.772 234.459 74 82 109
264.267 419.322 231.035 11 3 10
264.139 432.361 213.203 39 46 81
264.014 444.539 206.518 53 43 86
263.985 447.455 203.603 27 21 62
266.051 345.769 213.691 61 67 102
265.97 353.487 212.493 49 59 94
265.877 362.232 215.411 33 68 100
266.067 342.5 250.219 44 82 113
265.764 372.173 231.878 47 63 90
265.698 378.346 233.252 64 81 114
265.679 380.061 234.282 66 85 118
264.966 449.18 204.633 16 17 70
264.932 451.921 215.61 35 37 97
264.922 452.778 216.125 27 32 94
266.974 355.227 166.875 103 101 128
267.117 339.607 212.318 84 80 119
266.885 361.557 212.668 74 79 107
266.689 379.214 233.767 73 85 118
266.586 388.816 237.2 71 85 116
266.514 395.849 233.258 60 84 112
265.876 457.075 218.699 189 203 193
267.963 355.92 175.451 47 55 88
268.051 345.791 213.692 61 71 104
268.072 342.006 251.078 91 124 156
267.855 363.966 222.273 84 126 155
267.595 387.97 236.686 74 89 121
267.586 388.827 237.201 75 88 119
267.504 396.717 233.773 63 86 112
267.49 398.089 233.431 63 88 113
267.092 436.679 215.778 51 70 95
267.083 437.536 216.293 48 55 90
266.975 448.344 204.12 41 34 84
268.974 355.248 166.876 99 87 122
269.094 341.685 214.72 72 77 113
269.063 342.702 253.822 102 129 159
268.624 385.236 237.372 80 93 125
268.424 404.444 232.575 55 78 104
268.267 419.365 231.036 11 2 11
268.083 437.547 216.293 48 45 76
267.967 449.04 206.864 76 76 99
267.949 450.41 212.353 37 44 98
267.922 452.81 216.126 4 45 104
267.894 455.381 217.671 166 188 175
269.984 354.401 166.362 143 152 162
269.979 352.672 211.98 70 56 103
269.941 356.273 211.81 82 106 144
269.932 357.13 212.325 89 112 146
270.143 335.167 252.792 97 132 154
270.092 339.968 254.508 112 136 161
270.088 340.311 255.88 108 138 161
269.713 376.844 235.826 70 74 107
269.533 393.994 234.459 68 87 115
269.395 407.199 231.891 48 71 96
270.971 356.13 155.73 199 205 200
271.084 342.563 215.236 67 79 113
271.032 347.537 214.723 65 73 104
270.979 352.682 211.981 78 76 108
271.153 334.148 254.507 103 136 157
271.055 343.408 256.567 106 133 161
270.694 378.569 236.856 74 76 109
270.652 382.513 238.058 73 92 121
270.504 396.748 233.775 63 84 112
270.323 414.07 230.178 10 15 29
270.135 432.595 216.807 56 76 106
269.959 449.401 214.068 54 55 108
272.032 347.547 214.724 68 75 106
272.19 330.73 252.448 106 100 132
272.093 339.645 258.968 118 139 169
271.797 368.978 233.424 89 117 140
271.732 374.979 237.027 31 26 77
271.633 384.238 239.088 72 93 121
271.605 386.982 238.403 82 94 124
271.352 411.336 230.864 39 27 67
271.232 422.999 225.037 27 7 21
271.213 424.886 223.837 43 63 62
270.969 448.555 213.554 58 70 113
272.983 354.605 164.134 175 211 206
272.983 354.432 166.364 141 167 169
273.19 330.912 250.219 95 100 120
273.151 333.995 262.568 123 151 173
273.094 339.483 261.198 125 138 172
272.741 374.132 236.513 25 29 98
272.666 381.162 238.401 68 69 105
272.342 412.376 229.15 46 38 72
272.285 417.864 227.78 3 13 32
272.222 424.039 223.323 33 12 34
272.081 437.934 211.836 52 67 100
271.978 447.708 213.04 62 73 113
271.923 452.679 218.358 171 197 185
273.982 354.787 161.905 204 207 204
273.973 355.645 162.42 175 213 208
274.132 337.964 217.123 87 84 119
274.201 329.549 256.393 119 132 156
274.207 328.862 259.48 116 147 159
274.004 348.068 260.515 98 130 158
273.742 373.97 238.743 47 84 124
273.733 374.827 239.257 57 91 121
273.413 405.527 230.863 51 78 106
273.37 409.643 229.836 36 73 93
273.231 423.193 222.808 25 14 43
273.081 438.116 209.607 57 72 102
273.062 439.831 210.637 48 65 101
275.169 334.546 215.064 87 84 118
275.15 336.26 216.094 81 82 118
275.175 331.615 264.626 138 158 179
274.652 382.555 238.06 46 61 97
274.585 388.901 237.204 94 93 118
274.499 397.305 232.919 74 91 120
274.38 408.796 229.321 46 75 100
274.193 426.977 220.409 43 79 83
274.09 437.097 211.323 56 74 101
274.034 442.413 212.182 56 69 107
274.025 443.27 212.696 57 71 108
273.931 452.188 213.385 124 119 137
276.226 326.996 260.681 127 133 156
276.227 326.652 265.14 130 148 168
276.194 329.738 265.827 141 158 178
276.124 336.426 266.343 133 153 180
276.023 346.203 261.716 112 137 167
275.828 365.587 243.028 91 116 146
275.642 383.423 238.575 60 42 94
275.532 394.057 234.462 74 94 122
275.451 401.946 231.035 69 84 113
275.221 424.243 221.095 52 28 66
275.193 426.987 220.409 47 79 89
275.071 438.995 210.123 55 72 103
276.955 357.046 167.91 89 84 105
277.109 339.881 221.755 79 80 117
277.228 326.49 267.37 138 155 172
277.219 327.348 267.884 143 157 176
277.148 334.036 268.401 138 167 184
276.767 371.428 243.031 89 116 145
276.705 377.431 240.803 89 115 146
276.389 407.96 228.807 57 78 105
276.202 426.14 219.895 54 51 81
276.183 428.027 218.695 51 81 90
276.034 442.434 212.183 64 68 109
278.219 327.358 267.885 144 158 177
278.191 329.93 269.429 157 164 183
278.144 334.216 272.003 135 157 185
278.101 338.505 268.746 131 153 182
278.047 343.822 263.774 126 145 177
278 348.281 264.118 114 139 167
277.961 352.054 261.719 105 131 160
277.824 365.778 246.631 95 124 153
277.757 372.296 243.546 92 116 146
277.685 379.328 239.604 73 117 150
277.604 387.046 238.406 63 76 102
277.49 398.194 233.435 78 89 122
277.47 400.081 232.236 72 87 120
277.172 429.067 216.981 57 84 91
277.09 437.129 211.324 53 70 97
277.006 445.017 213.727 57 60 111
276.978 447.588 215.272 68 70 84
276.969 448.446 215.786 107 119 126
278.983 354.496 166.367 189 199 190
279.188 332.701 216.266 85 74 108
279.169 334.415 217.296 80 68 104
279.259 323.769 262.225 121 118 152
279.149 333.712 272.861 138 162 186
279.053 343.146 266.861 126 149 175
278.976 350.693 262.062 116 139 165
278.966 351.55 262.576 109 140 163
278.633 384.312 239.091 44 34 75
278.532 394.088 234.464 76 95 121
278.35 411.754 226.409 51 73 99
278.302 416.385 224.524 47 66 92
278.025 443.14 214.928 50 71 107
277.987 446.742 214.757 1 48 89
277.978 447.599 215.272 79 90 102
280.174 333.911 218.153 74 68 101
280.156 335.454 221.412 78 68 105
280.258 323.952 259.996 114 114 131
280.259 323.78 262.225 122 126 155
280.233 325.835 270.458 146 156 176
279.929 354.99 264.636 107 131 157
279.666 381.236 238.405 85 113 137
279.504 396.843 233.779 80 94 127
279.35 411.765 226.409 52 71 101
279.22 424.457 218.867 46 62 87
279.062 439.722 212.869 39 42 95
279.034 442.294 214.414 43 50 98
279.035 442.121 216.643 44 46 96
281.197 331.865 215.752 82 70 106
281.248 324.301 273.031 147 154 173
281.221 326.873 274.575 156 160 181
280.594 388.107 236.692 53 73 92
280.504 396.854 233.78 82 95 128
280.489 398.226 233.437 86 95 126
280.47 400.112 232.237 78 96 123
280.398 407.145 228.295 60 82 110
280.369 409.889 227.609 54 78 103
280.311 415.549 224.01 47 72 98
280.081 438.018 211.84 36 45 89
281.974 355.385 166.883 156 186 189
282.206 331.19 213.009 76 81 107
282.213 329.468 235.303 99 109 129
282.216 327.226 275.947 147 160 182
282.165 332.027 277.664 139 161 186
281.656 382.114 238.92 55 111 142
281.379 409.042 227.095 60 82 107
281.239 422.592 220.068 50 68 91
281.138 432.54 213.211 51 67 94
281.071 438.886 212.356 28 54 86
281.044 441.457 213.9 31 24 47
280.998 445.572 218.703 148 184 172
283.197 331.886 215.753 80 55 97
283.188 332.743 216.268 74 53 91
283.263 322.778 275.603 135 150 169
283.021 345.93 272.009 125 154 174
282.973 350.733 267.895 123 143 168
282.331 413.683 225.211 58 77 97
282.249 421.573 221.783 52 71 93
282.08 438.211 209.612 43 69 94
282.035 442.153 216.644 2 8 24
282.007 444.897 215.959 60 30 49
284.288 320.906 265.142 126 127 136
284.29 320.389 271.83 125 137 153
283.642 383.507 238.579 62 97 132
283.613 386.251 237.894 23 42 95
283.594 388.138 236.694 40 50 74
283.523 394.998 234.981 71 89 117
283.489 398.257 233.438 79 95 121
283.412 405.804 228.639 64 88 115
283.359 410.95 225.896 54 79 104
283.229 423.642 218.354 58 73 95
285.206 331.05 215.239 38 59 92
285.24 327.1 231.531 82 75 113
285.305 318.855 274.403 126 130 151
285.127 335.66 277.495 136 159 185
285.079 340.291 275.61 135 155 182
285.012 346.809 272.525 133 153 175
284.843 363.275 262.583 108 127 158
284.47 400.154 232.239 75 91 121
284.378 409.073 227.097 54 82 108
284.229 423.653 218.355 65 73 96
284.001 446.296 198.125 58 82 101
286.318 317.838 270.287 122 124 135
286.255 323.323 280.579 139 149 173
286.233 325.208 285.21 145 159 185
286.214 327.094 284.01 143 159 187
286.204 327.952 284.524 142 161 187
285.162 430.181 215.27 60 76 99
284.991 447.164 198.64 60 64 81
286.643 393.035 34.3283 132 49 164
287.19 331.578 237.707 36 35 74
287.175 332.95 237.364 22 29 66
287.318 317.849 270.287 118 121 133
287.261 322.646 283.666 139 150 175
287.017 346.143 275.613 131 154 175
286.989 348.887 274.927 126 151 170
286.895 358.323 263.097 121 138 166
286.886 359.18 263.612 117 137 164
286.552 392.114 237.897 55 80 106
286.46 401.205 230.525 69 88 122
286.412 405.836 228.64 60 89 114
286.108 435.509 210.299 58 81 104
286 446.489 195.896 51 86 106
285.991 447.346 196.411 53 87 107
287.763 381.382 40.1562 88 39 156
287.729 384.641 38.6137 86 27 149
288.346 315.115 270.973 79 79 90
288.328 316.83 272.003 106 119 131
288.219 326.429 287.097 146 161 187
287.999 347.868 276.643 127 152 172
287.804 367.252 257.955 109 134 161
287.287 418.024 221.956 63 73 102
288.806 377.105 43.4138 74 52 156
289.23 328 232.047 85 88 108
289.316 317.524 280.578 125 124 149
289.284 320.438 283.495 129 145 166
289.056 342.39 278.013 128 152 180
288.46 401.226 230.526 63 85 119
288.45 402.083 231.041 62 86 118
288.349 412.032 224.184 59 79 109
290.201 327.992 290.357 142 163 191
290.046 343.258 278.529 134 155 179
289.594 388.201 236.697 78 116 143
289.431 403.981 229.842 67 87 116
291.194 331.278 236.337 21 17 52
291.303 318.572 284.695 126 142 162
291.286 320.115 287.954 140 152 176
291.243 324.059 289.156 143 168 190
291.023 345.498 278.701 130 154 176
290.961 351.501 276.474 122 145 169
290.834 364.195 263.101 115 135 163
290.776 369.856 259.501 100 132 155
290.412 405.878 228.642 78 86 111
290.296 417.198 221.443 51 76 102
290.17 429.548 212.529 63 74 97
291.878 370.276 45.1282 71 42 153
291.85 372.848 46.6724 71 34 148
291.745 382.967 43.4171 55 25 141
291.726 384.681 44.4466 58 28 136
292.221 328.889 232.564 63 37 74
292.335 315.841 279.55 108 109 133
292.139 334.016 288.131 127 156 188
291.913 356.142 274.589 114 135 165
291.833 364.206 263.101 114 135 163
291.541 393.368 233.955 13 48 97
291.521 395.255 232.755 30 59 96
291.431 404.002 229.843 67 84 111
291.339 413.093 222.471 59 79 103
291.146 431.96 210.472 64 78 101
293.003 358.109 51.8134 81 36 147
292.68 388.978 47.0209 66 18 132
292.583 397.722 55.77 76 38 139
293.184 332.328 234.623 8 13 44
293.174 333.186 235.138 4 14 41
293.286 319.964 290.185 142 156 180
293.197 328.366 291.731 143 169 195
292.858 361.815 265.159 114 135 166
292.8 367.475 261.559 113 129 157
292.569 390.635 234.641 97 98 121
294.03 355.547 50.2696 76 39 147
293.975 360.691 53.3582 61 38 146
293.875 370.123 53.1896 64 28 138
293.847 372.695 54.7338 70 40 141
293.828 374.582 53.5339 65 30 144
294.221 328.91 232.565 42 34 68
294.357 313.977 274.92 64 76 96
294.305 318.087 291.385 139 151 177
294.288 319.63 294.644 145 162 187
294.106 337.123 288.819 128 152 181
294.019 345.7 282.304 123 152 174
293.897 357.88 269.789 116 142 168
293.858 361.653 267.389 114 133 163
293.396 407.454 226.072 57 83 107
293.218 424.949 214.415 55 71 96
292.934 453.254 184.754 46 84 101
292.951 451.366 191.785 62 22 67
295.05 353.671 51.47 69 43 152
294.975 360.53 55.5881 49 32 143
294.773 379.736 56.623 65 19 132
294.72 384.882 53.8805 56 15 126
295.22 328.92 232.565 31 32 63
295.34 315.185 282.638 116 116 142
295.024 345.196 283.162 124 148 172
294.768 370.41 264.476 98 122 145
294.469 400.432 230.014 53 73 102
294.246 422.216 215.101 52 72 95
296.052 352.993 60.3882 72 35 139
295.782 378.717 58.3381 59 18 128
295.763 380.604 57.1382 59 28 126
295.719 384.892 53.881 47 17 122
295.714 384.888 65.543 64 38 133
296.211 329.96 230.851 22 30 59
296.187 332.189 231.023 11 15 45
296.149 335.791 230.853 6 8 20
296.35 314.166 284.354 119 116 143
296.351 313.994 286.583 117 125 150
296.284 319.821 298.247 148 161 191
295.81 366.305 265.505 104 125 154
295.792 368.02 266.534 97 123 146
295.521 395.297 232.757 28 55 79
295.507 396.669 232.415 42 64 88
295.184 428.401 210.644 54 75 98
294.999 446.584 195.901 53 80 96
297.083 350.434 53.0135 69 55 144
297.017 356.088 66.9066 68 25 137
296.942 363.119 68.7953 47 13 123
296.817 375.124 64.34 54 17 123
296.599 396.047 60.5734 55 27 124
297.273 323.968 233.079 61 49 82
297.177 333.23 229.309 10 12 42
297.27 321.032 300.134 147 169 198
296.105 436.303 201.386 61 77 102
298.079 350.096 69.1348 61 25 131
297.942 363.129 68.7958 44 12 119
297.895 367.588 69.1401 50 14 122
297.761 380.451 65.1996 48 16 113
298.139 336.841 229.139 12 9 34
298.372 312.475 277.494 47 38 79
298.33 315.556 295.674 132 143 170
298.049 342.654 287.45 124 146 173
297.441 404.244 204.292 90 124 146
297.516 396.005 229.672 24 55 88
297.434 403.895 226.244 62 71 99
297.313 415.73 218.187 51 67 95
299.181 340.677 63.4729 44 17 118
299.125 345.82 66.5615 50 25 135
299.087 349.422 66.3911 59 26 128
299.069 350.964 69.65 52 23 128
299.032 354.393 71.7091 49 17 129
298.989 358.681 68.4519 39 20 128
298.804 376.173 68.4572 38 12 106
298.762 380.289 67.4295 52 17 119
299.286 322.789 231.193 54 40 90
299.22 329.134 230.338 12 17 51
299.186 332.393 228.795 8 11 41
299.133 337.539 226.053 9 10 32
299.134 337.367 228.282 15 10 32
299.364 312.998 282.468 104 108 132
299.344 314.194 296.017 131 135 163
299.063 341.292 287.793 127 145 175
298.929 354.327 281.623 109 131 157
298.451 403.398 203.778 98 123 149
298.236 423.287 213.388 49 67 93
298.183 428.605 208.416 56 70 96
298.094 437.526 197.443 59 74 100
298.047 441.985 197.787 68 84 108
300.164 342.576 56.4426 63 16 142
300.191 339.658 65.1881 47 18 127
300.125 345.831 66.562 48 28 130
300.089 349.088 70.8504 50 27 125
300.076 350.115 74.9667 47 25 124
299.967 360.405 75.3129 39 10 109
299.842 372.582 68.6281 40 11 108
299.805 376.012 70.6871 43 10 91
299.786 377.898 69.4872 48 14 105
299.425 413.06 49.7756 69 36 141
299.392 416.319 48.2331 46 28 142
300.319 319.713 230.507 91 87 120
300.152 335.835 225.024 9 7 34
300.142 336.692 225.538 8 8 30
300.133 337.549 226.053 6 11 30
300.124 338.407 226.568 13 10 30
299.434 403.916 226.245 55 67 96
299.255 421.583 212.359 44 65 92
299.094 437.537 197.444 61 73 101
299.018 444.911 194.873 67 89 105
298.999 446.626 195.903 68 79 97
301.173 341.901 53.6989 76 2 143
301.004 356.986 73.2543 31 9 118
300.929 364.016 75.143 36 14 106
300.801 376.192 74.2892 62 24 116
300.792 377.05 74.804 80 22 117
300.746 381.336 77.3777 47 27 126
301.239 327.269 231.538 15 14 48
301.109 339.789 226.226 19 11 35
301.376 311.992 278.353 38 41 64
300.938 353.491 281.11 116 134 160
300.434 403.926 226.245 51 65 94
300.395 407.7 223.846 47 67 94
300.163 430.685 204.988 57 65 96
299.979 448.695 192.474 71 80 99
302.211 338.138 56.0992 81 62 139
302.178 340.534 71.5348 48 5 107
302.057 351.851 75.9972 37 13 117
301.977 359.396 77.0285 19 3 104
301.939 362.997 76.8581 34 12 101
302.376 312.002 278.353 40 38 56
302.376 311.484 290.873 101 98 129
302.351 313.367 301.335 131 147 168
302.301 317.824 307.51 154 173 203
302.22 325.541 306.312 136 151 187
301.477 400.339 214.754 92 91 115
301.322 415.087 215.445 44 59 89
301.255 421.604 212.36 46 58 87
300.988 447.849 191.96 73 87 104
302.849 371.583 76.1752 40 7 101
302.775 378.441 80.2933 46 21 120
303.3 321.459 231.538 56 41 85
303.239 327.29 231.54 6 9 42
303.388 310.639 284.527 66 83 102
303.373 311.32 298.933 118 125 158
303.364 312.178 299.448 122 138 162
303.333 314.748 306.824 154 165 193
303.238 323.837 305.283 150 164 198
302.981 349.396 282.138 114 146 169
302.481 400.179 211.153 87 104 135
302.477 400.349 214.755 85 81 111
302.142 432.765 201.559 56 65 94
304.228 336.271 63.131 62 29 141
304.215 337.126 69.4767 49 18 131
304.203 337.981 75.8224 42 11 113
304.138 343.982 79.4258 44 10 112
303.964 360.445 81.1458 31 13 94
303.892 367.477 77.2035 27 7 90
304.309 320.612 231.023 60 46 89
304.109 339.993 223.998 18 18 44
304.099 340.85 224.513 24 22 47
304.09 341.708 225.027 30 24 51
304.381 310.818 293.96 104 107 134
304.287 319.045 309.398 148 175 201
303.971 350.264 282.654 110 145 167
305.195 338.677 78.5671 37 11 103
305.12 345.535 82.6852 33 10 107
305.092 348.279 82.0001 24 10 107
305.067 350.681 79.9428 22 9 105
304.883 368.173 79.9481 26 3 96
304.738 381.891 82.3533 51 25 123
304.728 382.748 82.8681 51 29 127
305.155 335.717 221.425 4 13 39
305.108 340.176 221.769 20 19 44
305.09 341.718 225.028 28 23 50
305.378 310.827 299.792 110 135 162
305.23 324.543 308.028 135 154 186
305.162 331.233 302.713 127 149 178
305.129 334.319 303.4 119 144 171
304.938 353.361 283.341 104 134 158
303.932 453.887 178.072 70 90 111
306.262 332.861 66.904 55 30 137
306.244 334.403 70.1629 49 24 131
306.235 335.26 70.6776 50 18 129
306.222 336.288 74.7939 37 17 121
306.212 337.145 75.3087 32 16 116
306.148 342.974 81.1414 50 13 107
306.058 351.549 80.4581 21 12 100
306.049 352.406 80.9728 24 12 98
306.02 355.15 80.2877 17 9 93
305.88 368.182 85.7796 39 11 104
305.753 380.357 84.9258 45 24 119
306.319 319.604 232.739 47 33 83
306.09 341.729 225.028 28 22 49
306.397 308.95 300.992 109 135 156
306.355 312.376 314.713 141 170 196
306.345 313.233 315.228 141 168 198
306.25 322.495 311.458 132 158 187
305.507 397.293 219.9 46 45 92
