ply
format ascii 1.0
element vertex 1421
property float x
property float y
property float z
property uchar blue
property uchar green
property uchar red
end_header
295 283 33 4 54 72
295 284 34 5 54 71
295 286 36 2 54 72
295 287 36 2 54 75
295 288 37 2 54 72
295 289 37 3 54 69
295 290 37 4 52 69
295 291 38 5 51 69
295 292 38 7 51 66
295 300 36 4 40 51
295 301 35 4 41 48
295 302 35 4 40 47
295 303 35 3 40 46
295 304 34 2 40 47
295 305 35 3 40 48
295 306 34 4 37 50
295 307 36 3 34 53
295 308 36 3 42 53
295 309 39 3 50 53
295 310 39 3 49 55
295 311 37 3 49 56
295 337 42 7 30 54
295 338 42 7 31 53
295 339 42 7 33 53
295 340 42 8 33 54
295 341 43 6 34 56
295 342 43 4 36 56
295 343 43 4 38 57
295 344 43 5 38 57
295 345 43 5 39 57
295 352 47 1 51 63
295 353 48 1 55 68
295 354 48 2 55 70
295 355 48 2 59 71
295 356 49 2 62 74
295 357 50 2 65 78
295 358 50 3 65 77
295 359 50 2 65 77
295 360 49 2 65 78
295 361 49 2 65 79
295 362 49 2 67 80
295 363 50 3 70 81
295 364 50 4 69 81
295 366 51 2 70 82
295 367 52 3 72 82
295 368 52 4 70 83
295 369 52 3 76 85
295 370 52 3 76 85
295 371 51 5 77 86
295 372 51 7 75 87
296 280 32 13 51 71
296 281 33 12 55 71
296 282 33 10 53 71
296 283 33 11 53 72
296 288 37 6 50 75
296 289 37 8 52 76
296 303 35 14 46 56
296 304 32 14 46 57
296 305 32 15 46 59
296 306 32 16 46 60
296 307 32 15 48 62
296 308 38 14 50 63
296 309 39 11 52 65
296 310 39 8 55 66
296 338 42 19 43 65
296 339 42 17 43 65
296 340 42 16 44 65
296 341 43 13 44 66
296 342 43 11 45 66
296 354 48 13 55 78
296 355 48 12 58 79
296 356 49 11 62 81
296 357 49 12 63 84
296 358 50 14 64 83
296 359 50 12 63 83
296 360 50 11 63 83
296 361 50 9 65 83
297 304 32 26 51 64
297 305 32 27 51 65
297 306 32 29 52 67
297 307 32 27 54 68
297 308 38 25 54 69
297 309 39 19 55 70
297 310 39 14 56 71
297 356 49 21 62 82
297 357 49 23 63 83
297 360 50 20 63 84
297 361 50 17 65 84
129.395 329.447 37.6864 254 254 254
129.37 330.442 37.5921 250 254 254
129.312 331.814 41.4799 247 254 254
129.288 332.809 41.3856 246 254 254
129.263 333.804 41.2913 246 254 254
129.239 334.8 41.197 246 254 254
129.214 335.795 41.1027 247 254 254
129.19 336.79 41.0084 214 254 254
130.531 322.882 42.3348 240 254 254
130.499 323.971 43.236 254 254 254
130.474 324.967 43.1417 254 254 254
130.441 326.056 44.0429 254 254 254
130.417 327.051 43.9486 254 254 254
130.392 328.046 43.8543 254 254 254
130.393 328.759 40.7735 254 254 254
130.369 329.754 40.6792 254 254 254
130.328 330.938 42.5759 235 254 254
130.312 331.839 41.4861 217 253 254
130.287 332.834 41.3918 225 253 254
130.254 333.924 42.293 234 254 254
130.238 334.825 41.2032 242 254 254
130.206 335.914 42.1044 250 254 254
130.19 336.815 41.0146 234 254 254
130.165 337.811 40.9203 217 254 254
132.49 294.167 3.88199 85 195 227
132.465 295.162 3.78769 112 200 237
132.441 296.157 3.69338 140 212 241
132.417 297.153 3.59908 185 224 246
131.997 305.423 37.9709 254 254 251
131.973 306.418 37.8766 217 254 249
131.948 307.414 37.7823 180 228 245
131.915 308.503 38.6836 159 203 242
131.891 309.498 38.5893 138 206 240
131.867 310.493 38.4949 141 210 238
131.842 311.489 38.4007 145 209 243
131.556 321.912 42.4353 238 254 254
131.531 322.907 42.341 246 254 254
131.498 323.996 43.2422 254 254 254
131.474 324.992 43.1479 254 254 254
131.441 326.081 44.0491 254 254 254
131.416 327.076 43.9548 254 254 254
131.392 328.072 43.8605 254 254 254
131.368 329.067 43.7662 254 254 254
131.352 329.968 42.6764 254 254 254
131.319 331.057 43.5776 221 254 254
131.294 332.052 43.4833 188 251 253
131.27 333.048 43.389 205 239 253
131.246 334.043 43.2947 222 246 253
131.221 335.038 43.2004 238 254 253
131.197 336.033 43.1061 254 254 253
131.172 337.029 43.0118 254 254 254
131.148 338.024 42.9175 254 254 254
133.514 293.197 3.98244 50 178 206
133.481 294.286 4.88367 64 182 213
133.457 295.281 4.78937 92 190 221
133.432 296.277 4.69507 121 205 230
133.408 297.272 4.60076 149 216 239
133.383 298.267 4.50646 176 228 246
132.997 305.448 37.9771 204 248 249
132.972 306.444 37.8828 177 221 244
132.948 307.439 37.7885 151 195 237
132.915 308.528 38.6897 132 195 231
132.891 309.523 38.5954 113 196 235
132.866 310.519 38.5011 114 196 240
132.842 311.514 38.4068 116 197 241
132.817 312.509 38.3125 129 202 242
132.793 313.504 38.2182 142 215 246
132.769 314.5 38.1239 145 216 250
132.71 315.871 42.0117 148 218 252
132.686 316.867 41.9174 156 220 254
132.67 317.768 40.8276 165 223 254
132.645 318.763 40.7333 165 225 254
132.621 319.758 40.639 165 227 254
132.597 320.753 40.5447 179 232 254
132.555 321.937 42.4414 192 237 254
132.531 322.932 42.3471 204 244 254
132.506 323.927 42.2528 217 252 254
132.465 325.111 44.1496 217 250 254
132.441 326.106 44.0553 217 248 254
132.416 327.101 43.9609 228 251 254
132.392 328.097 43.8666 240 254 254
132.359 329.186 44.7679 243 254 254
132.334 330.181 44.6736 247 254 254
132.31 331.176 44.5793 221 254 254
132.286 332.172 44.485 194 249 253
132.261 333.167 44.3907 190 240 252
132.237 334.162 44.2964 186 239 252
132.212 335.157 44.2021 220 252 252
132.188 336.153 44.1078 254 254 253
132.163 337.148 44.0135 254 254 254
132.148 338.049 42.9236 254 254 254
132.123 339.044 42.8293 254 254 254
134.538 292.227 4.0829 4 163 202
134.505 293.316 4.98413 23 167 204
134.472 294.405 5.88535 43 173 208
134.448 295.401 5.79105 73 180 212
134.423 296.396 5.69675 103 184 221
134.399 297.391 5.60244 112 188 230
134.374 298.386 5.50814 122 212 234
133.988 305.567 38.9788 155 191 230
133.964 306.563 38.8845 138 165 227
133.939 307.558 38.7902 122 188 226
133.915 308.553 38.6959 105 197 225
133.89 309.548 38.6016 88 193 228
133.866 310.544 38.5073 87 189 231
133.841 311.539 38.413 87 193 231
133.817 312.534 38.3187 95 197 232
133.793 313.529 38.2244 104 193 234
133.734 314.901 42.1122 112 189 235
133.71 315.896 42.0178 121 190 237
133.685 316.892 41.9235 128 192 239
133.67 317.793 40.8337 136 195 240
133.645 318.788 40.7394 142 198 242
133.612 319.877 41.6406 148 200 244
133.588 320.873 41.5463 147 203 245
133.546 322.056 43.4431 147 211 246
133.522 323.051 43.3488 163 220 247
133.498 324.047 43.2545 180 226 247
133.456 325.23 45.1512 180 232 248
133.432 326.225 45.0569 180 237 251
133.407 327.221 44.9626 203 243 254
133.383 328.216 44.8683 226 250 254
133.358 329.211 44.774 233 254 254
133.334 330.206 44.6797 241 254 254
133.301 331.296 45.5809 221 254 254
133.277 332.291 45.4866 201 246 253
133.252 333.286 45.3923 175 242 253
133.236 334.187 44.3025 150 246 253
133.212 335.183 44.2082 202 250 253
133.188 336.178 44.1139 254 254 253
133.163 337.173 44.0196 254 254 254
133.139 338.168 43.9253 254 254 254
133.114 339.163 43.831 254 254 254
133.09 340.159 43.7367 254 254 254
131.907 392.396 22.716 246 254 254
131.883 393.391 22.6217 245 254 254
131.858 394.386 22.5274 245 254 253
131.834 395.382 22.4331 242 254 253
135.586 290.261 4.27766 4 148 193
135.562 291.257 4.18336 9 150 197
135.529 292.346 5.08458 14 153 199
135.496 293.435 5.98581 27 157 202
135.472 294.431 5.8915 40 161 203
135.447 295.426 5.7972 53 167 204
135.423 296.421 5.7029 65 173 213
135.399 297.416 5.6086 87 185 222
135.374 298.412 5.5143 109 197 221
134.988 305.593 38.9849 115 179 211
134.955 306.682 39.8861 94 180 210
134.939 307.583 38.7963 73 182 214
134.914 308.578 38.702 66 180 219
134.881 309.668 39.6032 60 179 220
134.857 310.663 39.5089 52 179 222
134.824 311.752 40.4102 44 179 222
134.8 312.748 40.3159 57 177 223
134.758 313.931 42.2126 69 176 222
134.734 314.926 42.1183 77 178 221
134.71 315.922 42.024 85 180 222
134.602 319.284 45.7232 107 186 231
134.595 320.091 43.6378 105 190 234
134.57 321.086 43.5435 111 198 237
134.546 322.081 43.4492 118 204 238
134.522 323.076 43.3549 133 208 240
134.489 324.166 44.2562 147 212 241
134.456 325.255 45.1574 152 217 243
134.431 326.25 45.0631 158 222 248
134.407 327.246 44.9688 172 234 254
134.383 328.241 44.8745 187 247 254
134.358 329.236 44.7802 205 250 254
134.317 330.42 46.6769 223 254 254
134.292 331.415 46.5826 196 249 254
134.268 332.41 46.4883 170 244 254
134.243 333.405 46.394 153 234 254
134.219 334.401 46.2997 136 224 254
134.203 335.302 45.2099 182 237 254
134.179 336.297 45.1156 229 254 254
134.154 337.292 45.0213 230 254 254
134.113 338.476 46.918 231 254 254
134.097 339.377 45.8282 226 254 254
134.09 340.184 43.7429 222 254 254
134.065 341.179 43.6486 216 252 254
134.041 342.174 43.5543 210 251 253
133.394 371.803 27.6891 220 246 254
133.37 372.799 27.5948 244 254 254
132.973 390.242 20.9197 196 254 254
132.948 391.238 20.8254 205 254 254
132.907 392.421 22.7222 213 254 254
132.883 393.416 22.6279 219 254 254
132.858 394.412 22.5336 224 254 254
132.834 395.407 22.4393 220 254 254
132.809 396.402 22.345 216 254 254
132.785 397.397 22.2507 211 254 254
132.76 398.393 22.1564 205 254 254
136.586 290.286 4.28382 1 147 188
136.562 291.282 4.18952 13 148 192
136.529 292.371 5.09074 25 151 195
136.496 293.46 5.99196 31 154 197
136.463 294.55 6.89319 38 161 199
136.439 295.545 6.79888 33 162 201
136.414 296.54 6.70458 28 169 205
136.398 297.441 5.61476 62 182 209
136.003 304.717 40.0809 79 159 204
135.987 305.618 38.9911 75 166 204
135.954 306.707 39.8923 49 173 205
135.922 307.796 40.7935 24 175 207
135.897 308.792 40.6992 28 178 210
135.864 309.881 41.6005 33 177 212
135.84 310.876 41.5062 17 177 215
135.815 311.872 41.4118 2 178 216
135.791 312.867 41.3175 18 179 217
135.75 314.05 43.2143 35 175 214
135.725 315.045 43.12 42 172 211
135.684 316.229 45.0167 49 170 212
135.659 317.224 44.9224 66 169 213
135.626 318.314 45.8237 83 172 217
135.602 319.309 45.7294 72 175 221
135.578 320.304 45.6351 62 182 224
135.553 321.299 45.5408 76 193 226
135.537 322.2 44.4509 90 189 226
135.504 323.29 45.3521 102 186 227
135.48 324.285 45.2578 115 193 228
135.455 325.28 45.1635 125 200 230
135.431 326.276 45.0692 136 199 234
135.407 327.271 44.9749 142 198 238
135.374 328.36 45.8762 149 201 238
135.349 329.355 45.7819 177 205 237
135.316 330.445 46.6831 206 217 243
135.292 331.44 46.5888 172 229 249
135.268 332.435 46.4945 139 221 249
135.235 333.525 47.3957 131 214 250
135.21 334.52 47.3014 123 217 250
135.194 335.421 46.2116 163 220 251
135.17 336.416 46.1173 204 231 252
135.137 337.506 47.0185 206 243 253
135.113 338.501 46.9242 208 252 253
135.088 339.496 46.8299 199 254 254
135.064 340.491 46.7356 191 252 254
135.048 341.392 45.6458 178 251 254
135.023 342.388 45.5515 166 248 253
134.999 343.383 45.4572 157 246 253
134.975 344.378 45.3629 148 241 253
134.805 352.058 41.6219 154 241 254
134.78 353.053 41.5276 149 245 254
134.394 371.828 27.6952 209 254 254
134.369 372.824 27.6009 254 254 254
134.354 373.725 26.5111 254 254 254
134.338 374.626 25.4213 254 254 254
134.313 375.621 25.327 254 254 254
134.297 376.522 24.2372 254 254 254
134.273 377.518 24.1429 254 254 254
134.248 378.513 24.0486 254 254 254
134.224 379.508 23.9543 253 254 254
134.2 380.503 23.86 253 254 254
134.037 387.376 22.2043 187 244 248
134.013 388.371 22.11 161 244 247
133.997 389.272 21.0202 158 245 246
133.972 390.267 20.9259 155 236 245
133.948 391.263 20.8316 168 228 243
133.907 392.446 22.7283 181 226 243
133.882 393.441 22.634 192 224 243
133.858 394.437 22.5397 204 213 242
133.833 395.432 22.4454 198 203 241
133.8 396.521 23.3466 193 204 241
133.776 397.517 23.2523 185 205 242
133.752 398.512 23.158 177 210 241
133.727 399.507 23.0637 158 216 241
133.686 400.691 24.9605 139 216 240
133.678 401.498 22.8751 141 216 239
133.654 402.493 22.7808 144 213 239
133.638 403.394 21.691 156 211 240
133.622 404.295 20.6012 168 209 239
133.598 405.29 20.5069 172 208 238
133.582 406.191 19.4171 176 179 205
133.557 407.187 19.3228 179 150 171
133.533 408.182 19.2285 182 79 124
137.577 290.406 5.2855 4 146 184
137.553 291.401 5.1912 14 144 188
137.52 292.49 6.09242 23 143 190
137.487 293.58 6.99364 21 150 193
137.454 294.669 7.89487 20 161 196
137.43 295.664 7.80056 26 162 199
137.414 296.565 6.71074 33 166 197
137.036 303.652 39.1858 42 152 195
137.003 304.742 40.0871 40 159 197
136.978 305.737 39.9928 38 163 198
136.946 306.826 40.894 25 162 200
136.913 307.916 41.7952 12 162 200
136.888 308.911 41.7009 24 163 201
136.864 309.906 41.6066 35 164 205
136.839 310.901 41.5123 21 165 209
136.807 311.991 42.4135 7 167 210
136.774 313.08 43.3147 13 164 211
136.741 314.169 44.216 20 162 206
136.708 315.259 45.1172 27 161 201
136.683 316.254 45.0229 35 160 201
136.659 317.249 44.9286 39 161 202
136.626 318.339 45.8298 43 163 207
136.602 319.334 45.7355 37 172 212
136.577 320.329 45.6412 31 172 214
136.544 321.419 46.5424 43 170 216
136.528 322.32 45.4526 55 169 215
136.504 323.315 45.3583 73 174 214
136.471 324.404 46.2595 92 179 215
136.438 325.494 47.1608 92 182 217
136.414 326.489 47.0665 93 185 220
136.389 327.484 46.9722 103 181 223
136.365 328.479 46.8778 113 177 222
136.332 329.569 47.7791 129 191 221
136.308 330.564 47.6848 145 200 233
136.283 331.559 47.5905 135 204 245
136.259 332.554 47.4962 124 209 245
136.234 333.55 47.4019 119 207 246
136.201 334.639 48.3031 114 205 247
136.177 335.634 48.2088 135 209 249
136.161 336.535 47.119 156 213 250
136.137 337.531 47.0247 174 231 252
136.112 338.526 46.9304 192 250 253
136.088 339.521 46.8361 187 246 254
136.063 340.516 46.7418 183 243 254
136.039 341.512 46.6474 170 242 254
136.015 342.507 46.5531 157 242 254
135.99 343.502 46.4588 149 238 254
135.974 344.403 45.369 142 235 254
135.894 348.196 43.0008 127 214 254
135.869 349.191 42.9065 122 214 254
135.853 350.092 41.8166 117 214 254
135.829 351.088 41.7223 128 218 254
135.804 352.083 41.628 138 223 254
135.78 353.078 41.5337 137 225 254
135.756 354.073 41.4394 136 227 254
135.516 366.877 28.1729 150 223 254
135.483 367.967 29.0741 166 230 254
135.458 368.962 28.9798 182 237 254
135.434 369.957 28.8855 180 246 254
135.409 370.952 28.7912 178 254 254
135.394 371.854 27.7014 198 254 254
135.369 372.849 27.6071 217 254 254
135.353 373.75 26.5173 213 254 254
135.329 374.745 26.423 210 254 254
135.304 375.74 26.3287 209 254 254
135.288 376.642 25.2388 208 254 254
135.264 377.637 25.1445 212 253 254
135.24 378.632 25.0502 217 252 254
135.215 379.627 24.9559 202 245 254
135.182 380.717 25.8572 187 239 254
135.158 381.712 25.7629 181 229 254
135.133 382.707 25.6686 176 219 254
135.109 383.702 25.5743 169 217 254
135.085 384.698 25.4799 161 216 251
135.06 385.693 25.3857 157 212 248
135.036 386.688 25.2913 153 208 245
135.037 387.401 22.2105 136 203 242
135.012 388.396 22.1162 119 199 240
134.997 389.297 21.0263 117 197 239
134.972 390.293 20.932 114 196 236
134.939 391.382 21.8333 122 196 233
134.906 392.471 22.7345 129 197 232
134.882 393.467 22.6402 125 192 232
134.857 394.462 22.5459 122 188 230
134.825 395.551 23.4471 128 186 228
134.809 396.452 22.3573 135 185 229
134.776 397.542 23.2585 126 185 230
134.751 398.537 23.1642 116 185 229
134.727 399.532 23.0699 109 189 229
134.694 400.622 23.9711 101 194 226
134.678 401.523 22.8813 105 191 224
134.662 402.424 21.7915 110 189 225
134.638 403.419 21.6972 122 191 226
134.622 404.32 20.6073 134 194 224
134.597 405.315 20.513 135 169 223
134.573 406.311 20.4187 136 145 164
134.549 407.306 20.3244 117 92 105
134.524 408.301 20.2301 98 39 54
134.5 409.296 20.1358 75 5 3
138.577 290.431 5.29166 8 137 180
138.553 291.426 5.19735 15 141 184
138.52 292.515 6.09858 22 142 187
138.487 293.605 6.9998 12 146 190
138.462 294.6 6.9055 2 156 193
138.429 295.689 7.80672 20 162 196
138.035 303.677 39.192 1 154 194
138.011 304.673 39.0977 1 159 195
137.97 305.856 40.9944 1 159 196
137.937 306.945 41.8957 1 159 197
137.912 307.941 41.8014 1 158 197
137.879 309.03 42.7026 19 157 197
137.855 310.025 42.6083 38 160 198
137.822 311.115 43.5095 25 163 200
137.798 312.11 43.4152 13 163 201
137.765 313.199 44.3164 9 164 202
137.732 314.289 45.2177 5 158 200
137.707 315.284 45.1234 13 152 198
137.675 316.373 46.0246 22 157 199
137.65 317.369 45.9303 13 161 201
137.626 318.364 45.836 4 163 203
137.593 319.453 46.7372 2 169 205
137.568 320.448 46.6429 1 169 206
137.535 321.538 47.5441 11 169 207
137.52 322.439 46.4543 21 171 207
137.495 323.434 46.36 45 173 206
137.471 324.429 46.2657 69 169 207
137.438 325.519 47.1669 60 166 208
137.413 326.514 47.0726 51 166 210
137.38 327.603 47.9738 64 166 212
137.356 328.599 47.8795 77 170 212
137.332 329.594 47.7852 81 182 213
137.299 330.683 48.6865 85 182 220
137.283 331.584 47.5966 97 183 227
137.25 332.674 48.4978 110 185 230
137.225 333.669 48.4035 108 188 232
137.201 334.664 48.3092 106 188 233
137.177 335.659 48.2149 107 188 235
137.161 336.561 47.1251 109 196 237
137.136 337.556 47.0308 142 205 239
137.103 338.645 47.932 176 205 240
137.079 339.64 47.8377 175 205 242
137.063 340.542 46.7479 175 211 243
137.039 341.537 46.6536 161 218 244
137.014 342.532 46.5593 148 214 245
136.99 343.527 46.465 142 210 246
136.974 344.428 45.3752 136 207 246
136.949 345.424 45.2809 132 205 247
136.942 346.231 43.1955 128 205 247
136.918 347.226 43.1012 121 205 247
136.893 348.221 43.0069 115 209 247
136.869 349.216 42.9126 101 214 247
136.853 350.117 41.8228 88 214 248
136.82 351.207 42.724 105 214 249
136.796 352.202 42.6297 123 205 250
136.771 353.197 42.5354 125 196 250
136.747 354.193 42.4411 127 206 251
136.756 354.811 38.3647 123 216 251
136.732 355.807 38.2704 119 216 252
136.707 356.802 38.1761 114 217 254
136.683 357.797 38.0818 110 220 254
136.625 359.169 41.9696 112 223 254
136.6 360.164 41.8753 115 219 253
136.703 359.747 26.8481 166 210 252
136.679 360.743 26.7538 217 238 253
136.654 361.738 26.6595 222 254 254
136.621 362.827 27.5607 227 254 254
136.597 363.823 27.4664 199 254 254
136.556 365.006 29.3632 172 242 251
136.531 366.001 29.2689 152 230 249
136.507 366.997 29.1746 132 228 249
136.474 368.086 30.0758 141 227 250
136.458 368.987 28.986 151 232 249
136.434 369.982 28.8917 171 238 248
136.418 370.883 27.8019 192 246 247
136.385 371.973 28.7031 186 254 246
136.369 372.874 27.6133 181 248 243
136.353 373.775 26.5234 173 243 241
136.328 374.77 26.4291 166 231 239
136.304 375.766 26.3348 164 220 237
136.288 376.667 25.245 163 211 236
136.264 377.662 25.1507 171 202 235
136.239 378.657 25.0564 180 192 233
136.215 379.652 24.9621 150 183 231
136.182 380.742 25.8633 121 175 231
136.158 381.737 25.769 121 168 231
136.133 382.732 25.6747 121 172 231
136.109 383.727 25.5804 112 177 231
136.084 384.723 25.4861 104 170 230
136.06 385.718 25.3918 99 164 229
136.035 386.713 25.2975 94 163 228
136.028 387.52 23.2122 86 163 228
136.004 388.515 23.1179 78 168 227
135.988 389.417 22.028 76 173 226
135.963 390.412 21.9337 74 169 224
135.939 391.407 21.8394 76 166 222
135.906 392.496 22.7406 78 165 222
135.882 393.492 22.6463 59 165 222
135.857 394.487 22.552 40 163 220
135.824 395.576 23.4533 59 161 218
135.791 396.666 24.3545 78 162 218
135.767 397.661 24.2602 67 164 219
135.743 398.656 24.1659 56 167 218
135.718 399.651 24.0716 60 171 217
135.694 400.647 23.9773 64 164 215
135.678 401.548 22.8875 70 157 213
135.653 402.543 22.7931 76 155 214
135.637 403.444 21.7033 88 154 215
135.613 404.439 21.609 100 149 206
135.597 405.34 20.5192 98 144 197
135.573 406.336 20.4249 96 74 126
135.548 407.331 20.3306 55 1 55
135.515 408.42 21.2318 14 1 36
135.491 409.416 21.1375 7 1 16
139.61 289.367 4.39659 5 129 172
139.568 290.55 6.29334 9 128 176
139.544 291.545 6.19904 13 138 181
139.511 292.635 7.10026 18 142 184
139.478 293.724 8.00148 14 144 188
139.453 294.719 7.90718 11 151 191
139.06 302.707 39.2925 6 156 193
139.027 303.797 40.1937 2 156 193
138.994 304.886 41.0949 2 157 194
138.961 305.975 41.9961 2 158 194
138.936 306.971 41.9018 1 156 194
138.904 308.06 42.803 1 149 194
138.879 309.055 42.7087 10 153 194
138.846 310.145 43.61 20 155 192
138.813 311.234 44.5112 14 157 191
138.789 312.229 44.4169 8 159 192
138.756 313.319 45.3181 7 156 194
138.732 314.314 45.2238 7 154 194
138.699 315.403 46.125 12 154 195
138.674 316.398 46.0307 18 154 197
138.65 317.394 45.9364 12 159 200
138.625 318.389 45.8421 6 163 199
138.592 319.478 46.7434 5 160 199
138.56 320.568 47.6446 5 158 199
138.535 321.563 47.5503 8 157 199
138.511 322.558 47.456 11 157 199
138.486 323.553 47.3617 24 158 199
138.462 324.549 47.2674 38 160 199
138.429 325.638 48.1686 44 158 200
138.405 326.633 48.0743 51 156 200
138.372 327.723 48.9755 47 163 201
138.347 328.718 48.8812 43 163 203
138.323 329.713 48.7869 43 167 205
138.298 330.708 48.6926 44 171 207
138.274 331.704 48.5983 61 172 210
138.25 332.699 48.504 77 173 214
138.217 333.788 49.4052 69 176 219
138.192 334.783 49.3109 62 179 220
138.168 335.779 49.2166 58 176 221
138.135 336.868 50.1178 55 174 223
138.119 337.769 49.028 86 184 226
138.095 338.764 48.9337 117 195 228
138.07 339.76 48.8394 118 198 230
138.046 340.755 48.7451 120 201 232
138.021 341.75 48.6508 120 199 234
137.997 342.745 48.5565 120 198 236
137.973 343.741 48.4622 118 199 239
137.948 344.736 48.3679 116 201 239
137.924 345.731 48.2736 113 199 240
137.899 346.726 48.1793 109 197 240
137.883 347.627 47.0895 94 197 241
137.867 348.529 45.9997 78 198 241
137.843 349.524 45.9053 82 202 241
137.836 350.331 43.82 85 206 243
137.811 351.326 43.7257 92 201 245
137.795 352.227 42.6359 100 197 246
137.771 353.222 42.5416 104 196 247
137.746 354.218 42.4473 108 206 248
137.747 354.931 39.3664 109 209 249
137.723 355.926 39.2721 110 212 251
137.682 357.109 41.1688 118 212 254
137.649 358.199 42.0701 126 228 254
137.624 359.194 41.9758 122 218 254
137.6 360.189 41.8815 118 215 252
137.575 361.184 41.7872 141 218 251
137.678 360.768 26.76 165 222 252
137.654 361.763 26.6657 174 225 254
137.621 362.852 27.5669 184 229 254
137.588 363.942 28.4681 161 222 254
137.547 365.125 30.3649 138 216 249
137.514 366.215 31.2661 127 210 245
137.498 367.116 30.1763 117 204 245
137.465 368.205 31.0775 126 212 246
137.441 369.2 30.9832 136 221 244
137.425 370.102 29.8934 138 216 243
137.409 371.003 28.8035 141 211 240
137.384 371.998 28.7092 126 202 238
137.368 372.899 27.6194 112 194 233
137.353 373.8 26.5296 117 190 229
137.32 374.889 27.4308 121 186 225
137.295 375.885 27.3365 108 182 221
137.271 376.88 27.2422 95 178 218
137.246 377.875 27.1479 96 173 216
137.222 378.87 27.0536 96 168 212
137.198 379.866 26.9593 85 165 208
137.165 380.955 27.8605 73 162 208
137.14 381.95 27.7662 72 162 208
137.116 382.946 27.6719 71 163 208
137.091 383.941 27.5776 64 161 209
137.076 384.842 26.4878 57 159 209
137.051 385.837 26.3935 54 163 210
137.027 386.832 26.2992 51 163 212
137.019 387.639 24.2138 46 164 215
136.995 388.635 24.1195 42 165 214
136.979 389.536 23.0297 40 171 213
136.954 390.531 22.9354 38 173 212
136.93 391.526 22.8411 46 161 211
136.897 392.616 23.7423 54 161 211
136.873 393.611 23.648 47 162 212
136.848 394.606 23.5537 41 163 210
136.815 395.695 24.4549 45 161 208
136.791 396.691 24.3606 49 165 208
136.767 397.686 24.2663 39 162 209
136.742 398.681 24.172 28 160 207
136.718 399.676 24.0777 40 159 206
136.693 400.672 23.9834 52 159 204
136.677 401.573 22.8936 55 157 203
136.653 402.568 22.7993 58 156 203
136.629 403.563 22.705 71 162 204
136.613 404.464 21.6152 85 170 187
136.588 405.46 21.5209 66 115 171
136.572 406.361 20.4311 48 3 88
136.539 407.45 21.3323 41 2 6
136.515 408.445 21.238 34 9 18
136.491 409.441 21.1437 27 17 30
136.466 410.436 21.0494 21 26 41
136.442 411.431 20.9551 27 36 52
136.417 412.426 20.8608 33 46 55
136.272 419.111 17.2141 38 55 60
136.247 420.106 17.1198 43 47 57
136.223 421.101 17.0255 52 44 54
140.634 288.396 4.49705 2 123 166
140.609 289.392 4.40275 6 125 169
140.568 290.575 6.29949 10 129 174
140.535 291.664 7.20072 12 136 178
140.502 292.754 8.10194 15 141 181
140.478 293.749 8.00764 17 143 185
140.453 294.744 7.91333 20 148 187
140.101 301.549 37.4019 16 153 190
140.059 302.732 39.2986 10 155 190
140.026 303.822 40.1998 4 153 191
139.993 304.911 41.1011 3 151 191
139.96 306 42.0023 3 152 191
139.928 307.09 42.9035 2 153 192
139.903 308.085 42.8092 2 152 192
139.87 309.174 43.7104 2 151 193
139.837 310.264 44.6117 2 153 190
139.804 311.353 45.5129 2 154 188
139.78 312.348 45.4186 3 153 190
139.756 313.344 45.3243 6 152 192
139.723 314.433 46.2255 9 151 192
139.698 315.428 46.1312 11 148 193
139.674 316.424 46.0369 14 152 195
139.641 317.513 46.9381 11 158 197
139.617 318.508 46.8438 8 157 197
139.575 319.692 48.7406 8 156 197
139.551 320.687 48.6463 9 155 197
139.526 321.682 48.552 5 155 197
139.493 322.771 49.4532 1 156 197
139.469 323.767 49.3589 4 157 198
139.445 324.762 49.2646 7 157 198
139.412 325.851 50.1658 29 158 199
139.387 326.847 50.0715 51 159 199
139.363 327.842 49.9772 30 161 200
139.338 328.837 49.8829 9 162 202
139.314 329.832 49.7886 6 164 204
139.29 330.828 49.6943 4 165 206
139.265 331.823 49.6 24 166 208
139.241 332.818 49.5057 45 168 209
139.208 333.907 50.4069 31 177 211
139.175 334.997 51.3081 18 177 212
139.15 335.992 51.2138 9 177 214
139.135 336.893 50.124 1 178 216
139.11 337.888 50.0297 29 180 219
139.086 338.884 49.9354 58 178 220
139.061 339.879 49.8411 61 176 221
139.037 340.874 49.7468 65 177 224
139.012 341.869 49.6525 79 179 227
138.988 342.865 49.5582 93 186 227
138.964 343.86 49.4639 95 193 228
138.939 344.855 49.3696 97 187 229
138.915 345.85 49.2753 94 181 230
138.89 346.846 49.181 91 188 230
138.874 347.747 48.0912 66 195 231
138.859 348.648 47.0013 42 195 232
138.834 349.643 46.907 62 195 233
138.81 350.638 46.8127 83 194 235
138.802 351.445 44.7274 80 194 238
138.795 352.252 42.642 77 196 239
138.77 353.248 42.5477 83 197 241
138.746 354.243 42.4534 90 201 243
138.73 355.144 41.3636 95 206 246
138.706 356.139 41.2693 101 206 248
138.681 357.134 41.175 121 207 250
138.648 358.224 42.0762 142 210 252
138.624 359.219 41.9819 132 214 254
138.6 360.214 41.8876 122 221 253
138.575 361.21 41.7933 117 229 252
138.551 362.205 41.699 113 226 253
138.654 361.788 26.6718 127 223 254
138.612 362.972 28.5686 141 223 250
138.579 364.061 29.4698 123 201 246
138.538 365.245 31.3666 105 185 236
138.514 366.24 31.2723 103 170 227
138.489 367.235 31.178 102 179 228
138.465 368.23 31.0836 111 189 229
138.44 369.225 30.9893 121 176 227
138.416 370.221 30.895 105 164 225
138.391 371.216 30.8007 90 161 224
138.376 372.117 29.7109 67 158 223
138.368 372.924 27.6256 44 156 221
138.344 373.919 27.5313 60 154 220
138.319 374.915 27.437 77 156 216
138.286 376.004 28.3382 52 159 213
138.27 376.905 27.2484 28 159 212
138.246 377.9 27.1541 20 160 211
138.222 378.896 27.0598 13 162 210
138.189 379.985 27.961 19 164 209
138.164 380.98 27.8667 26 164 209
138.14 381.975 27.7724 23 164 208
138.115 382.971 27.6781 21 163 209
138.091 383.966 27.5838 15 163 209
138.075 384.867 26.4939 10 162 209
138.051 385.862 26.3996 9 162 210
138.026 386.858 26.3053 9 161 210
138.01 387.759 25.2155 7 160 211
137.986 388.754 25.1212 6 162 211
137.962 389.749 25.0269 4 170 210
137.946 390.65 23.9371 2 169 210
137.921 391.646 23.8428 16 157 209
137.888 392.735 24.744 31 158 209
137.864 393.73 24.6497 36 160 210
137.831 394.819 25.5509 42 162 209
137.807 395.815 25.4566 31 162 208
137.791 396.716 24.3668 21 163 209
137.766 397.711 24.2725 11 161 210
137.742 398.706 24.1782 1 160 209
137.717 399.702 24.0839 20 159 208
137.693 400.697 23.9896 40 160 208
137.677 401.598 22.8998 40 161 209
137.653 402.593 22.8055 41 164 209
137.628 403.588 22.7112 55 168 209
137.612 404.49 21.6213 70 156 179
137.596 405.391 20.5315 35 87 148
137.572 406.386 20.4372 1 24 90
137.539 407.475 21.3384 27 3 33
137.515 408.471 21.2441 54 29 44
137.49 409.466 21.1498 47 56 56
137.466 410.461 21.0555 41 61 59
137.441 411.456 20.9612 47 67 62
137.417 412.452 20.8669 53 63 58
137.401 413.353 19.7771 57 59 53
137.385 414.254 18.6873 62 52 54
137.352 415.343 19.5885 79 82 55
137.336 416.244 18.4987 97 77 59
137.32 417.145 17.4088 72 73 63
137.287 418.235 18.3101 47 67 55
137.272 419.136 17.2202 46 61 47
137.247 420.131 17.1259 45 39 43
137.223 421.126 17.0316 39 31 40
137.198 422.122 16.9373 34 17 25
137.174 423.117 16.843 70 3 10
137.158 424.018 15.7532 106 6 29
137.134 425.013 15.6589 143 10 49
141.633 288.421 4.5032 1 125 162
141.6 289.511 5.40443 9 124 167
141.567 290.6 6.30565 18 130 171
141.526 291.784 8.2024 16 135 176
141.493 292.873 9.10362 15 140 179
141.469 293.868 9.00932 22 142 182
141.116 300.673 38.4978 21 147 188
141.075 301.856 40.3946 16 150 188
141.05 302.852 40.3003 14 150 188
141.017 303.941 41.2015 12 150 188
140.976 305.124 43.0983 9 150 189
140.952 306.12 43.004 6 151 189
140.927 307.115 42.9097 3 151 190
140.894 308.204 43.8109 1 152 191
140.87 309.2 43.7166 2 152 192
140.837 310.289 44.6178 3 152 188
140.804 311.378 45.519 4 149 185
140.78 312.374 45.4247 5 146 187
140.747 313.463 46.326 7 149 190
140.722 314.458 46.2317 9 150 190
140.698 315.453 46.1374 8 150 191
140.665 316.543 47.0386 8 150 192
140.641 317.538 46.9443 6 153 194
140.608 318.627 47.8455 4 157 194
140.575 319.717 48.7467 7 156 195
140.542 320.806 49.6479 9 156 195
140.517 321.801 49.5536 6 156 196
140.485 322.891 50.4549 3 156 196
140.46 323.886 50.3606 4 156 197
140.436 324.881 50.2663 5 158 197
140.394 326.065 52.163 19 157 198
140.378 326.966 51.0732 32 161 199
140.345 328.055 51.9744 22 160 200
140.321 329.05 51.8801 11 159 202
140.297 330.046 51.7858 11 160 204
140.281 330.947 50.696 10 161 205
140.256 331.942 50.6017 27 162 206
140.223 333.031 51.5029 45 163 205
140.199 334.027 51.4086 39 164 204
140.175 335.022 51.3143 33 165 205
140.15 336.017 51.22 28 167 207
140.126 337.012 51.1257 23 169 209
140.11 337.913 50.0359 37 169 212
140.077 339.003 50.9371 52 170 212
140.052 339.998 50.8428 47 173 212
140.028 340.993 50.7485 43 176 216
140.004 341.989 50.6542 45 175 220
139.979 342.984 50.5599 48 175 219
139.955 343.979 50.4656 49 177 218
139.93 344.974 50.3713 50 179 219
139.906 345.97 50.277 48 181 221
139.882 346.965 50.1827 47 177 221
139.866 347.866 49.0928 43 181 221
139.85 348.767 48.003 39 185 223
139.825 349.762 47.9087 42 186 225
139.801 350.758 47.8144 46 188 228
139.785 351.659 46.7246 54 191 232
139.786 352.372 43.6437 63 195 233
139.762 353.367 43.5494 72 196 235
139.746 354.268 42.4596 82 197 239
139.721 355.263 42.3653 84 203 244
139.697 356.258 42.271 87 205 245
139.672 357.254 42.1767 113 208 246
139.648 358.249 42.0824 139 212 250
139.624 359.244 41.9881 150 225 254
139.599 360.239 41.8938 161 240 254
139.575 361.235 41.7995 161 241 254
139.55 362.23 41.7052 161 242 254
139.611 362.284 31.6556 137 230 254
139.587 363.279 31.5613 113 218 246
139.562 364.274 31.467 83 199 238
139.538 365.27 31.3727 53 159 223
139.513 366.265 31.2784 53 160 209
139.489 367.26 31.1841 53 162 211
139.464 368.255 31.0898 66 163 213
139.44 369.251 30.9955 80 164 210
139.416 370.246 30.9012 68 164 207
139.391 371.241 30.8069 55 164 208
139.367 372.236 30.7126 48 163 209
139.351 373.137 29.6228 41 162 210
139.335 374.039 28.5329 40 163 211
139.311 375.034 28.4386 39 164 208
139.286 376.029 28.3443 37 159 205
139.262 377.024 28.25 36 159 205
139.237 378.02 28.1557 30 158 206
139.213 379.015 28.0614 25 157 208
139.188 380.01 27.9671 29 161 211
139.164 381.005 27.8728 33 164 210
139.14 382.001 27.7785 35 163 209
139.115 382.996 27.6842 36 163 209
139.091 383.991 27.5899 29 163 210
139.075 384.892 26.5001 21 165 210
139.05 385.887 26.4058 22 160 210
139.018 386.977 27.307 23 161 209
139.002 387.878 26.2172 21 160 208
138.977 388.873 26.1229 20 160 208
138.953 389.868 26.0286 17 165 208
138.937 390.77 24.9388 15 166 208
138.912 391.765 24.8445 25 159 208
138.88 392.854 25.7457 35 156 208
138.855 393.849 25.6514 39 159 208
138.831 394.845 25.5571 43 162 208
138.806 395.84 25.4628 48 163 208
138.782 396.835 25.3685 53 164 209
138.757 397.83 25.2742 42 164 211
138.733 398.826 25.1799 32 165 210
138.709 399.821 25.0856 48 165 210
138.684 400.816 24.9913 64 166 213
138.668 401.717 23.9014 63 170 216
138.644 402.712 23.8071 61 175 215
138.628 403.614 22.7173 54 168 215
138.612 404.515 21.6275 48 142 170
138.588 405.51 21.5332 33 45 126
138.572 406.411 20.4434 18 46 93
138.547 407.406 20.3491 36 57 60
138.523 408.402 20.2548 55 69 71
138.49 409.491 21.156 39 71 83
138.465 410.486 21.0617 23 74 78
138.433 411.575 21.9629 30 66 73
138.417 412.477 20.8731 38 58 61
138.392 413.472 20.7788 43 53 49
138.376 414.373 19.6889 48 49 47
138.352 415.368 19.5946 50 41 45
138.327 416.363 19.5003 53 34 44
138.312 417.265 18.4105 44 26 43
138.287 418.26 18.3162 36 19 38
138.263 419.255 18.2219 36 18 34
138.247 420.156 17.1321 36 17 30
138.222 421.151 17.0378 31 15 26
138.198 422.147 16.9435 27 13 22
138.182 423.048 15.8537 40 8 19
138.158 424.043 15.7594 53 3 10
138.133 425.038 15.6651 91 3 1
142.633 288.447 4.50936 1 120 158
142.609 289.442 4.41506 13 123 163
142.567 290.625 6.31181 26 123 168
142.526 291.809 8.20855 20 124 173
142.501 292.804 8.11425 15 140 176
142.468 293.893 9.01548 27 141 179
142.165 298.707 38.6926 37 139 184
142.14 299.703 38.5983 35 140 184
142.107 300.792 39.4995 26 142 185
142.074 301.881 40.4008 17 141 185
142.042 302.971 41.302 18 141 185
142.009 304.06 42.2032 20 144 186
141.976 305.15 43.1044 14 147 186
141.943 306.239 44.0056 9 147 187
141.91 307.328 44.9069 5 148 187
141.886 308.324 44.8126 1 148 188
141.861 309.319 44.7183 2 148 190
141.828 310.408 45.6195 4 146 188
141.804 311.403 45.5252 6 145 186
141.771 312.493 46.4264 8 147 188
141.746 313.488 46.3321 8 148 190
141.722 314.483 46.2378 9 147 189
141.689 315.573 47.139 5 147 189
141.665 316.568 47.0447 2 149 190
141.632 317.657 47.9459 1 150 191
141.599 318.747 48.8472 1 150 191
141.566 319.836 49.7484 5 150 191
141.542 320.831 49.6541 10 151 192
141.509 321.921 50.5553 7 152 193
141.476 323.01 51.4565 5 154 193
141.46 323.911 50.3667 4 155 194
141.427 325 51.2679 4 156 194
141.394 326.09 52.1692 9 157 195
141.37 327.085 52.0749 14 157 196
141.345 328.08 51.9806 14 157 197
141.321 329.076 51.8862 14 157 199
141.296 330.071 51.7919 15 157 201
141.272 331.066 51.6976 17 158 202
141.247 332.061 51.6034 31 159 203
141.223 333.056 51.509 45 162 203
141.199 334.052 51.4147 46 162 203
141.174 335.047 51.3204 48 164 204
141.15 336.042 51.2261 46 165 205
141.125 337.037 51.1318 45 167 208
141.101 338.033 51.0375 46 168 210
141.077 339.028 50.9432 47 168 211
141.052 340.023 50.8489 34 169 211
141.028 341.018 50.7546 21 173 214
141.003 342.014 50.6603 12 177 217
140.979 343.009 50.566 3 178 216
140.954 344.004 50.4717 3 179 215
140.93 344.999 50.3774 3 180 215
140.906 345.995 50.2831 3 181 215
140.881 346.99 50.1888 3 181 216
140.865 347.891 49.099 19 182 218
140.849 348.792 48.0092 36 181 220
140.816 349.882 48.9104 23 180 222
140.801 350.783 47.8206 10 184 223
140.776 351.778 47.7263 29 188 224
140.76 352.679 46.6364 49 189 227
140.744 353.58 45.5466 62 191 231
140.72 354.575 45.4523 75 194 236
140.712 355.382 43.367 74 201 242
140.697 356.284 42.2771 73 211 246
140.672 357.279 42.1828 105 216 250
140.648 358.274 42.0885 137 226 252
140.615 359.363 42.9897 169 237 254
140.599 360.265 41.8999 201 247 254
140.574 361.26 41.8056 205 254 254
140.55 362.255 41.7113 210 254 254
140.602 362.403 32.6573 147 254 254
140.578 363.398 32.563 85 236 250
140.562 364.299 31.4732 43 198 246
140.537 365.295 31.3789 1 172 228
140.513 366.29 31.2846 2 160 210
140.489 367.285 31.1903 4 164 213
140.464 368.28 31.096 22 166 216
140.44 369.276 31.0017 40 167 213
140.415 370.271 30.9074 30 169 210
140.391 371.266 30.8131 21 166 210
140.366 372.261 30.7188 29 169 209
140.342 373.257 30.6245 38 168 208
140.318 374.252 30.5301 19 168 207
140.302 375.153 29.4403 1 161 204
140.277 376.148 29.346 23 160 202
140.253 377.144 29.2517 45 161 203
140.228 378.139 29.1574 41 166 204
140.204 379.134 29.0631 37 158 207
140.18 380.129 28.9688 39 159 210
140.155 381.124 28.8745 41 161 209
140.131 382.12 28.7802 46 161 209
140.106 383.115 28.6859 52 161 208
140.082 384.11 28.5916 42 161 208
140.066 385.011 27.5018 33 160 208
140.042 386.007 27.4075 35 159 207
140.017 387.002 27.3132 37 159 207
139.993 387.997 27.2189 35 160 207
139.977 388.898 26.129 34 161 207
139.952 389.893 26.0347 31 164 208
139.928 390.889 25.9404 28 165 207
139.912 391.79 24.8506 33 161 207
139.879 392.879 25.7518 39 160 207
139.855 393.874 25.6575 42 159 207
139.83 394.87 25.5632 45 160 206
139.806 395.865 25.4689 65 167 205
139.781 396.86 25.3746 85 162 204
139.757 397.855 25.2803 74 172 204
139.733 398.851 25.186 63 164 202
139.708 399.846 25.0917 76 169 201
139.684 400.841 24.9974 89 162 202
139.659 401.836 24.9031 85 182 203
139.643 402.738 23.8133 82 175 199
139.619 403.733 23.719 54 169 196
139.603 404.634 22.6292 26 114 140
139.587 405.535 21.5393 30 4 84
139.563 406.53 21.445 35 23 58
139.547 407.431 20.3552 45 59 32
139.522 408.427 20.2609 56 61 37
139.498 409.422 20.1666 30 64 43
139.448 410.699 23.0589 5 51 45
139.424 411.695 22.9646 14 39 47
139.416 412.502 20.8792 24 30 40
139.392 413.497 20.7849 29 22 33
139.376 414.398 19.6951 34 17 31
139.352 415.393 19.6008 21 12 30
139.327 416.389 19.5065 9 8 29
139.303 417.384 19.4122 17 5 29
139.287 418.285 18.3224 26 6 26
139.262 419.28 18.2281 27 7 24
139.246 420.181 17.1382 28 9 22
139.222 421.177 17.0439 24 12 20
139.206 422.078 15.9541 20 13 19
139.182 423.073 15.8598 10 14 18
139.157 424.068 15.7655 1 8 9
139.133 425.063 15.6712 40 1 1
143.608 289.467 4.42122 15 119 159
143.567 290.65 6.31796 28 121 164
143.542 291.646 6.22366 21 125 170
143.501 292.829 8.12041 14 140 173
143.197 297.643 37.7975 31 143 179
143.164 298.733 38.6988 26 139 181
143.14 299.728 38.6045 22 140 182
143.107 300.817 39.5057 15 140 183
143.066 302.001 41.4024 9 141 183
143.033 303.09 42.3037 11 141 183
143 304.179 43.2049 14 143 183
142.967 305.269 44.1061 10 144 184
142.934 306.358 45.0073 7 146 184
142.91 307.353 44.913 4 147 185
142.877 308.443 45.8142 1 148 186
142.852 309.438 45.7199 1 148 188
142.819 310.527 46.6212 2 148 188
142.795 311.523 46.5269 4 148 188
142.771 312.518 46.4326 6 148 189
142.746 313.513 46.3383 6 148 190
142.713 314.602 47.2395 6 148 189
142.68 315.692 48.1407 4 147 188
142.656 316.687 48.0464 2 148 188
142.623 317.776 48.9476 2 147 189
142.599 318.772 48.8533 1 146 188
142.557 319.955 50.7501 5 148 188
142.533 320.95 50.6558 9 150 189
142.508 321.946 50.5615 6 151 190
142.475 323.035 51.4627 3 153 190
142.451 324.03 51.3684 3 154 191
142.427 325.026 51.2741 2 154 191
142.394 326.115 52.1753 5 155 192
142.369 327.11 52.081 7 156 193
142.345 328.105 51.9867 8 156 195
142.32 329.101 51.8924 9 157 196
142.296 330.096 51.7981 10 156 198
142.272 331.091 51.7038 10 156 199
142.247 332.086 51.6095 26 158 201
142.223 333.082 51.5152 41 161 202
142.198 334.077 51.4209 41 162 203
142.174 335.072 51.3266 42 164 203
142.149 336.067 51.2323 32 164 204
142.125 337.063 51.138 23 166 206
142.101 338.058 51.0437 30 166 209
142.076 339.053 50.9494 38 166 210
142.052 340.048 50.8551 24 166 211
142.027 341.044 50.7608 11 166 212
142.003 342.039 50.6665 12 166 214
141.979 343.034 50.5722 13 166 213
141.954 344.029 50.4779 15 167 212
141.93 345.025 50.3836 17 169 211
141.905 346.02 50.2893 21 170 210
141.881 347.015 50.195 24 172 212
141.857 348.01 50.1007 29 171 215
141.841 348.911 49.0108 33 171 217
141.816 349.907 48.9165 23 174 220
141.792 350.902 48.8222 13 178 218
141.776 351.803 47.7324 28 177 217
141.751 352.798 47.6381 43 177 222
141.735 353.699 46.5483 61 185 227
141.728 354.506 44.4629 79 192 234
141.721 355.313 42.3776 99 206 241
141.688 356.403 43.2788 119 218 247
141.663 357.398 43.1845 141 224 254
141.647 358.299 42.0947 163 238 254
141.623 359.294 42.0004 185 246 254
141.599 360.29 41.9061 208 254 254
141.574 361.285 41.8118 220 254 254
141.567 362.092 39.7264 232 254 254
141.576 362.711 35.65 199 254 254
141.56 363.612 34.5602 166 254 254
141.544 364.513 33.4704 111 226 254
141.528 365.414 32.3806 56 186 233
141.504 366.409 32.2862 40 159 212
141.488 367.31 31.1964 24 166 215
141.464 368.306 31.1021 41 166 219
141.439 369.301 31.0078 59 172 216
141.415 370.296 30.9135 38 168 214
141.39 371.291 30.8192 17 164 212
141.366 372.287 30.7249 22 159 210
141.342 373.282 30.6306 27 155 206
141.317 374.277 30.5363 17 157 203
141.293 375.272 30.442 6 159 201
141.268 376.268 30.3477 21 160 200
141.244 377.263 30.2534 36 163 201
141.22 378.258 30.1591 33 161 203
141.195 379.253 30.0648 30 159 206
141.171 380.249 29.9705 32 158 210
141.155 381.15 28.8807 35 162 209
141.13 382.145 28.7864 45 161 209
141.098 383.234 29.6876 56 165 208
141.082 384.135 28.5978 41 162 207
141.066 385.036 27.5079 25 160 206
141.041 386.032 27.4136 24 159 205
141.017 387.027 27.3193 23 158 205
140.992 388.022 27.225 24 158 206
140.976 388.923 26.1352 25 163 207
140.952 389.919 26.0409 30 163 208
140.928 390.914 25.9466 35 164 207
140.903 391.909 25.8523 41 162 207
140.87 392.998 26.7535 48 160 206
140.846 393.994 26.6592 39 159 206
140.83 394.895 25.5694 31 159 204
140.797 395.984 26.4706 43 159 203
140.781 396.885 25.3808 55 160 200
140.757 397.881 25.2865 56 162 197
140.732 398.876 25.1922 56 164 194
140.708 399.871 25.0979 53 161 192
140.683 400.866 25.0036 50 159 191
140.659 401.861 24.9093 53 155 191
140.643 402.763 23.8195 56 151 184
140.619 403.758 23.7252 36 144 177
140.594 404.753 23.6309 15 87 109
140.57 405.748 23.5365 16 2 42
140.545 406.744 23.4422 18 1 23
140.53 407.645 22.3524 23 2 4
140.514 408.546 21.2626 28 4 4
140.472 409.729 23.1593 16 2 4
140.439 410.819 24.0606 4 1 12
140.423 411.72 22.9707 9 2 21
140.399 412.715 22.8764 15 3 19
140.383 413.616 21.7866 18 6 17
140.367 414.517 20.6968 21 10 16
140.351 415.418 19.607 13 8 15
140.327 416.414 19.5127 6 7 15
140.311 417.315 18.4228 11 5 15
140.286 418.31 18.3285 15 9 14
140.262 419.305 18.2342 17 8 14
140.246 420.206 17.1444 18 8 14
140.222 421.202 17.0501 16 11 14
140.206 422.103 15.9603 13 15 15
140.181 423.098 15.866 7 14 17
140.157 424.093 15.7717 1 14 9
140.133 425.089 15.6774 46 1 1
140.108 426.084 15.5831 91 1 45
144.608 289.492 4.42737 17 118 155
144.575 290.581 5.32859 30 118 162
144.551 291.577 5.23429 22 126 170
144.188 297.762 38.7992 24 139 176
144.164 298.758 38.7049 16 139 179
144.131 299.847 39.6061 9 138 180
144.098 300.936 40.5074 5 145 181
144.057 302.12 42.4041 1 139 180
144.024 303.209 43.3053 5 139 180
143.991 304.299 44.2066 9 141 181
143.958 305.388 45.1078 7 143 182
143.934 306.383 45.0135 5 145 183
143.901 307.473 45.9147 3 146 184
143.876 308.468 45.8204 1 146 185
143.843 309.557 46.7216 1 147 186
143.819 310.552 46.6273 1 147 186
143.795 311.548 46.533 3 147 187
143.77 312.543 46.4387 5 145 189
143.737 313.632 47.3399 4 144 191
143.704 314.722 48.2412 3 147 188
143.68 315.717 48.1469 3 147 185
143.656 316.712 48.0526 3 146 186
143.623 317.802 48.9538 2 145 187
143.581 318.985 50.8505 2 144 186
143.557 319.98 50.7562 5 144 186
143.524 321.07 51.6575 8 147 187
143.499 322.065 51.5631 5 147 188
143.475 323.06 51.4689 2 150 188
143.451 324.055 51.3745 1 154 189
143.418 325.145 52.2758 1 153 190
143.393 326.14 52.1815 1 152 191
143.36 327.229 53.0827 1 152 192
143.336 328.225 52.9884 3 152 194
143.312 329.22 52.8941 5 153 195
143.287 330.215 52.7998 4 154 196
143.254 331.304 53.701 4 156 198
143.238 332.206 52.6112 21 158 200
143.214 333.201 52.5169 38 159 201
143.189 334.196 52.4226 37 163 202
143.174 335.097 51.3328 36 163 202
143.149 336.092 51.2384 18 164 203
143.125 337.088 51.1441 1 164 206
143.1 338.083 51.0498 15 164 208
143.067 339.172 51.9511 30 165 209
143.043 340.168 51.8568 15 165 211
143.019 341.163 51.7625 1 165 211
142.994 342.158 51.6682 12 165 212
142.97 343.153 51.5739 24 165 210
142.945 344.149 51.4796 28 165 209
142.921 345.144 51.3853 32 164 208
142.905 346.045 50.2954 39 163 208
142.881 347.04 50.2011 46 165 209
142.856 348.035 50.1068 38 168 211
142.832 349.031 50.0125 31 170 212
142.807 350.026 49.9182 23 172 213
142.791 350.927 48.8284 16 175 213
142.767 351.922 48.7341 27 178 214
142.751 352.823 47.6443 38 178 216
142.735 353.724 46.5544 61 179 217
142.719 354.626 45.4646 84 193 228
142.703 355.527 44.3748 124 212 238
142.687 356.428 43.285 165 218 246
142.663 357.423 43.1907 177 232 254
142.647 358.324 42.1008 190 244 254
142.614 359.414 43.0021 202 254 254
142.598 360.315 41.9122 215 254 254
142.574 361.31 41.8179 234 254 254
142.566 362.117 39.7326 254 254 254
142.567 362.83 36.6517 250 254 254
142.552 363.731 35.5619 247 254 254
142.536 364.632 34.472 179 254 254
142.52 365.533 33.3822 112 197 235
142.504 366.434 32.2924 78 158 216
142.479 367.43 32.1981 44 162 211
142.463 368.331 31.1083 61 167 207
142.439 369.326 31.014 78 167 206
142.415 370.321 30.9197 45 168 205
142.39 371.316 30.8254 13 161 203
142.366 372.312 30.7311 15 155 201
142.341 373.307 30.6368 17 155 200
142.317 374.302 30.5425 14 156 199
142.292 375.297 30.4482 12 158 198
142.268 376.293 30.3539 20 160 197
142.244 377.288 30.2596 28 155 198
142.219 378.283 30.1653 26 151 199
142.195 379.278 30.071 24 154 199
142.17 380.274 29.9767 26 158 200
142.146 381.269 29.8823 29 158 198
142.122 382.264 29.788 45 158 197
142.097 383.259 29.6937 61 155 197
142.081 384.16 28.6039 39 153 197
142.057 385.156 28.5096 18 153 195
142.041 386.057 27.4198 13 154 194
142.016 387.052 27.3255 9 155 195
141.992 388.047 27.2312 13 156 196
141.976 388.948 26.1414 17 157 195
141.952 389.944 26.0471 29 159 194
141.927 390.939 25.9528 42 154 193
141.903 391.934 25.8585 49 149 192
141.87 393.024 26.7597 57 147 193
141.846 394.019 26.6654 37 146 195
141.83 394.92 25.5756 18 150 192
141.797 396.009 26.4768 22 154 190
141.772 397.005 26.3825 26 148 187
141.748 398 26.2882 38 142 184
141.732 398.901 25.1983 50 126 182
141.708 399.896 25.104 31 110 180
141.683 400.891 25.0097 12 117 180
141.659 401.887 24.9154 21 124 180
141.634 402.882 24.8211 31 122 172
141.618 403.783 23.7313 18 120 164
141.594 404.778 23.637 5 49 93
141.57 405.773 23.5427 3 1 22
141.545 406.769 23.4484 1 1 15
141.529 407.67 22.3586 1 3 8
141.496 408.759 23.2598 1 2 7
141.463 409.849 24.161 2 2 7
141.439 410.844 24.0667 4 2 11
141.423 411.745 22.9769 5 2 15
141.407 412.646 21.8871 6 4 14
141.391 413.547 20.7972 7 5 14
141.367 414.542 20.7029 8 5 13
141.342 415.538 20.6086 6 6 13
141.326 416.439 19.5188 4 7 13
141.302 417.434 19.4245 4 5 13
141.286 418.335 18.3347 5 9 13
141.262 419.33 18.2404 7 9 13
141.237 420.326 18.1461 9 8 12
141.221 421.227 17.0563 8 10 12
141.197 422.222 16.962 7 12 14
141.173 423.217 16.8677 4 14 15
141.148 424.213 16.7734 1 7 8
141.132 425.114 15.6835 52 1 1
141.108 426.109 15.5892 104 32 70
141.083 427.104 15.4949 171 178 140
145.608 289.517 4.43353 25 112 152
145.575 290.607 5.33475 33 116 161
145.55 291.602 5.24045 26 129 170
145.221 296.698 37.9042 18 136 172
145.188 297.788 38.8054 17 140 174
145.155 298.877 39.7066 20 138 177
145.131 299.872 39.6123 24 137 178
145.081 301.15 42.5046 14 137 179
145.056 302.145 42.4103 5 138 178
145.024 303.234 43.3115 10 138 177
144.991 304.324 44.2127 16 139 179
144.958 305.413 45.1139 20 141 181
144.933 306.408 45.0196 24 144 182
144.9 307.498 45.9209 13 145 184
144.876 308.493 45.8266 3 146 184
144.843 309.582 46.7278 3 146 185
144.819 310.578 46.6335 4 146 185
144.794 311.573 46.5392 5 144 186
144.761 312.662 47.4404 6 143 189
144.728 313.752 48.3416 4 144 192
144.696 314.841 49.2428 2 147 187
144.671 315.836 49.1485 2 146 183
144.647 316.831 49.0542 2 145 184
144.614 317.921 49.9555 1 144 186
144.581 319.01 50.8567 1 144 185
144.548 320.1 51.7579 3 143 184
144.524 321.095 51.6636 4 147 185
144.499 322.09 51.5693 3 146 186
144.475 323.085 51.475 3 146 187
144.442 324.175 52.3762 2 149 188
144.417 325.17 52.2819 2 152 189
144.393 326.165 52.1876 1 151 191
144.352 327.349 54.0844 1 151 192
144.327 328.344 53.9901 8 150 193
144.303 329.339 53.8958 15 150 194
144.278 330.334 53.8015 19 152 195
144.254 331.33 53.7072 22 157 197
144.229 332.325 53.6129 31 157 199
144.205 333.32 53.5186 40 158 200
144.181 334.315 53.4243 42 162 201
144.156 335.311 53.33 45 166 202
144.132 336.306 53.2357 44 166 203
144.116 337.207 52.1458 43 167 205
144.091 338.202 52.0515 45 167 208
144.067 339.197 51.9572 47 167 209
144.043 340.193 51.8629 35 166 211
144.018 341.188 51.7686 23 166 210
143.994 342.183 51.6743 24 166 210
143.969 343.178 51.58 25 167 208
143.945 344.174 51.4857 20 163 207
143.921 345.169 51.3914 16 163 206
143.896 346.164 51.2971 24 163 206
143.872 347.159 51.2028 33 165 207
