ply
format ascii 1.0
element vertex 1379
property float x
property float y
property float z
property uchar blue
property uchar green
property uchar red
end_header
377.852 302.585 992.37 226 228 247
378.395 357.523 988.431 221 250 245
378.457 363.505 987.329 232 227 243
379.22 440.404 981.014 209 219 245
379.268 445.403 980.929 211 222 247
378.079 223.642 996.724 230 238 247
378.243 240.639 996.433 212 224 246
379.184 338.62 994.759 224 235 244
379.529 370.477 986.214 189 227 246
379.908 409.452 984.548 207 225 246
380.403 458.357 978.712 213 223 248
380.465 465.373 979.592 196 223 251
376.876 -0.136068 1011.55 180 198 220
376.962 7.82814 1009.42 181 203 227
377.932 108.809 1007.69 205 219 247
378.767 192.69 1000.26 216 240 246
379.771 295.619 995.499 222 242 247
380.894 408.46 985.57 207 227 246
381.076 426.422 983.263 226 219 246
378.596 73.8059 1008.29 206 216 240
378.639 78.8221 1009.21 204 220 245
378.908 106.817 1008.73 186 212 245
379.076 123.796 1007.44 221 226 242
379.244 138.708 1002.18 215 219 246
380.824 302.659 998.384 213 225 247
382.59 478.351 979.38 195 216 244
380.542 171.76 1005.63 220 229 246
381.406 260.709 1002.11 234 241 246
382.644 383.48 988.006 224 228 243
382.817 401.476 987.699 215 234 245
380.678 84.8704 1013.11 195 215 246
381.431 160.77 1006.82 194 223 246
381.974 217.776 1006.84 225 241 249
382.555 274.646 998.872 229 231 245
382.838 305.691 1001.34 228 232 245
382.939 313.604 996.206 234 232 245
383.241 345.615 996.659 229 236 246
383.308 351.579 994.557 224 231 245
383.558 377.574 994.113 222 229 245
384.504 472.436 985.492 205 214 242
384.835 505.378 981.928 133 134 176
390.368 575.459 -6.39975 1 3 2
381.38 53.8668 1013.65 173 206 241
381.51 67.8813 1014.41 215 218 238
382.687 86.8852 1015.09 209 214 241
385.62 385.605 996.986 224 229 242
386.268 449.473 988.894 199 222 246
386.604 484.466 988.296 212 217 242
386.816 505.428 985.938 85 103 128
383.846 103.89 1015.8 215 224 244
384.033 122.869 1014.48 190 229 246
384.633 184.84 1012.42 216 229 244
384.883 208.767 1008.01 231 236 247
385.785 301.715 1004.42 225 242 244
385.944 317.694 1003.15 231 236 245
385.062 125.859 1014.43 201 221 248
385.1 130.892 1016.35 198 215 246
386.32 254.765 1008.23 239 235 244
387.001 322.65 1001.07 234 237 246
388.547 480.516 992.374 198 224 248
385.049 22.9546 1021.2 185 207 232
385.179 36.969 1021.96 194 212 229
385.884 108.904 1017.73 227 220 245
386.412 162.859 1014.81 216 227 247
387.065 228.778 1009.68 219 235 246
387.992 323.708 1005.06 225 233 246
388.788 404.624 999.675 204 226 245
388.822 407.606 998.625 203 226 247
389.23 448.547 994.925 211 226 248
389.926 514.312 980.799 16 27 48
385.813 -3.1013 1018.65 177 205 226
385.919 8.93065 1020.44 164 213 226
389.328 358.692 1004.47 215 229 247
396.344 569.283 -13.2666 1 8 2
388.974 220.812 1012.83 235 239 246
391.249 451.562 996.883 204 223 249
391.691 495.485 992.132 83 4 144
390.041 228.835 1014.69 225 233 243
390.118 236.833 1014.56 237 240 246
390.43 267.776 1011.03 224 234 246
390.665 292.788 1011.6 229 236 247
391.649 391.65 1002.91 222 225 242
392.508 479.581 998.409 199 225 248
388.905 8.95346 1023.46 183 208 227
389.836 105.935 1021.8 189 218 246
389.966 120.983 1024.54 208 226 246
390.96 220.844 1015.84 239 238 245
391.449 270.8 1012.98 216 251 246
391.473 273.817 1013.93 232 237 243
390.659 88.9799 1025.09 212 221 243
391.254 149.934 1022.05 221 229 246
392.497 276.824 1014.88 225 232 247
392.627 289.804 1013.66 220 226 246
392.656 292.804 1013.61 230 223 245
394.422 471.598 1000.56 210 216 244
394.758 502.455 992.027 21 40 66
400.211 575.929 26.6442 2 2 1
391.764 99.9683 1024.91 202 218 246
392.748 200.897 1020.19 230 238 246
392.806 206.896 1020.08 224 235 246
393.785 307.843 1016.36 227 238 245
394.121 341.802 1013.78 228 227 244
392.207 45.0721 1031.85 185 207 234
392.616 87.0469 1030.14 204 221 245
392.649 90.0292 1029.09 209 221 244
394.843 312.798 1014.28 218 225 248
393.313 57.0945 1033.65 210 213 238
393.447 70.0578 1031.43 211 222 240
394.345 160.955 1024.88 224 227 245
394.537 181.985 1026.52 211 229 246
395.022 230.924 1022.68 231 246 246
395.718 301.859 1018.47 228 243 245
396.078 338.835 1016.84 234 239 247
396.582 389.774 1012.97 221 228 245
397.206 452.693 1007.89 218 219 246
397.355 466.639 1004.65 204 218 246
397.561 487.618 1003.3 96 122 129
396.929 324.879 1020.08 213 229 245
397.26 356.788 1014.54 206 237 249
395.798 108.083 1033.79 211 232 246
396.998 228.923 1023.73 232 245 247
397.296 260.951 1025.18 228 230 247
398.021 334.885 1020.92 226 237 247
398.601 392.788 1014.93 225 227 245
399.158 449.743 1011.95 215 222 247
397.379 167.011 1029.79 232 230 244
398.598 291.918 1023.66 218 232 246
399.097 342.874 1020.79 228 230 244
399.909 424.773 1014.39 220 219 244
396.924 18.1153 1037.34 180 204 227
397.063 32.0955 1036.1 177 215 231
397.073 33.0953 1036.08 177 212 231
397.116 38.1115 1037 191 214 231
397.371 65.1234 1037.54 219 219 237
397.827 112.097 1035.73 206 225 243
398.979 228.972 1027.74 237 239 245
399.896 321.868 1021.15 219 233 247
400.38 370.808 1017.31 242 236 243
400.865 420.781 1015.46 224 232 243
401.427 476.685 1009.5 107 138 187
399.624 194.038 1032.34 227 238 247
399.984 229.979 1028.72 238 238 241
400.924 325.892 1023.09 222 224 246
402.062 441.784 1016.1 190 222 250
402.283 462.712 1011.75 206 224 248
402.321 466.711 1011.68 218 216 244
402.388 473.71 1011.56 155 190 240
402.412 475.692 1010.52 132 113 156
408.11 568.974 33.802 1 2 2
399.001 26.0947 1037.21 178 210 229
399.169 44.1084 1037.9 207 213 237
401.737 307.938 1026.4 237 236 244
402.054 339.897 1023.85 226 254 248
402.131 347.896 1023.71 226 241 247
402.14 348.896 1023.7 225 242 246
402.193 354.912 1024.59 222 239 245
402.443 378.838 1020.19 227 228 246
402.625 397.835 1019.86 221 234 245
402.822 416.78 1016.54 218 228 246
400.087 36.1175 1039.05 196 212 232
401.115 143.097 1037.22 222 224 243
401.124 144.097 1037.2 223 224 243
401.235 155.078 1036.01 231 223 244
401.561 188.037 1033.45 230 235 245
402.257 260.006 1031.22 235 236 244
402.886 322.908 1025.15 225 236 247
403.016 336.923 1025.91 235 240 247
403.572 392.843 1020.95 226 228 245
403.99 435.818 1019.22 212 232 246
404.384 474.742 1014.55 116 119 131
402.302 163.101 1037.88 227 227 246
403.012 235.018 1032.65 214 237 247
403.017 236.035 1033.64 219 236 247
403.867 321.933 1027.17 227 245 246
404.75 411.847 1021.63 223 243 244
404.875 423.811 1019.43 210 225 247
405.537 487.627 1008.34 2 49 52
402.145 45.1995 1044.9 169 208 236
403.191 152.11 1039.07 208 228 251
404.041 240.076 1036.57 211 237 250
404.804 316.976 1030.26 224 241 246
405.284 364.898 1025.44 224 231 246
406.134 450.796 1018.97 207 228 247
406.532 487.635 1009.34 1 20 45
404.134 146.102 1039.18 203 217 246
404.695 204.074 1037.19 229 229 243
405.972 333.946 1028.97 238 248 246
406.189 356.959 1029.58 218 219 247
407.484 483.66 1011.41 8 47 52
413.048 572.251 52.7724 1 2 1
404.582 91.1888 1045.13 207 209 246
406.084 245.073 1037.5 224 247 249
406.243 262.087 1038.21 225 235 246
407.918 429.832 1022.34 218 227 246
409.019 441.872 1025.14 209 229 246
409.129 453.887 1025.93 210 219 246
407.652 201.097 1040.26 226 229 245
407.984 235.073 1038.68 230 241 248
408.42 280.048 1036.91 233 234 246
407.927 129.221 1048.49 216 230 246
408.273 163.146 1043.91 220 227 245
409.713 311.049 1037.38 220 246 246
409.992 339.01 1034.91 230 231 245
410.438 384.984 1033.12 217 229 246
410.851 425.907 1028.42 206 226 246
411.268 466.814 1022.72 121 119 129
410.512 291.078 1039.73 221 236 248
410.583 297.025 1036.63 223 234 248
412.15 356.005 1035.62 222 230 245
412.976 438.886 1028.21 202 231 248
413.24 464.829 1024.76 130 89 115
419.018 562.99 40.9576 1 1 1
410.106 45.2604 1052.94 200 214 231
411.777 217.159 1046 233 217 244
412.646 305.056 1039.5 228 229 244
413.621 404.986 1034.79 220 231 246
411.457 83.2949 1055.3 206 216 243
412.076 145.197 1049.24 230 230 245
414.083 351.055 1039.72 228 233 245
414.232 365.001 1036.48 226 242 246
414.28 370 1036.4 219 235 247
414.644 407.993 1035.75 223 227 246
414.702 413.992 1035.64 224 226 245
414.98 440.918 1031.18 200 222 248
415.124 454.881 1028.94 78 123 162
412.27 63.2721 1054.64 206 216 232
412.827 121.261 1053.65 209 218 247
413.892 230.171 1047.79 221 231 247
414.113 252.133 1045.41 225 232 244
415.174 360.027 1038.57 227 230 247
415.256 368.008 1037.43 227 235 246
415.822 425.963 1034.44 218 217 246
415.99 443.976 1035.14 203 223 250
421.929 578.798 89.7083 1 1 1
413.198 57.3151 1057.75 217 216 234
413.534 92.3084 1057.15 194 220 248
415.948 338.073 1041.95 226 231 245
416.788 422.971 1035.5 208 224 247
413.996 36.3097 1058.11 188 206 234
415.331 173.215 1051.77 221 231 246
415.772 219.206 1050.99 229 232 245
418.215 463.833 1027.81 43 46 59
415.14 52.3313 1059.84 208 214 232
416.364 177.222 1052.71 213 230 246
416.503 192.236 1053.45 224 229 245
417.478 291.131 1046.76 231 233 246
417.876 332.106 1045.06 233 236 244
418.131 358.084 1043.62 211 236 245
418.486 394.043 1041 207 239 246
418.18 262.196 1051.26 233 233 245
420.39 385.06 1043.17 215 227 246
417.871 25.3422 1062.32 185 209 232
418.726 114.325 1060.8 223 228 245
420.449 291.205 1052.78 225 240 250
420.54 300.187 1051.62 229 236 246
421.025 349.126 1047.79 230 240 245
421.064 353.125 1047.72 231 230 244
421.332 380.086 1045.26 225 236 245
422.225 465.829 1029.79 1 13 18
418.698 7.33613 1062.63 177 196 226
420.811 225.226 1054.91 232 234 246
421.055 251.238 1055.46 231 236 246
421.166 262.219 1054.28 225 228 244
422.774 425.033 1042.49 206 225 246
420.044 45.3878 1065.99 187 216 236
421.244 168.296 1059.89 221 229 244
422.876 335.161 1051.04 231 221 244
423.88 436.021 1042.31 200 209 254
421.193 60.3583 1064.74 200 216 237
424.169 366.162 1051.51 213 243 247
430.852 576.918 101.785 1 1 1
422.13 54.367 1065.84 202 215 236
422.246 67.3988 1067.62 207 218 235
422.871 28.3968 1068.29 170 207 229
422.885 30.4135 1069.26 196 211 229
423.697 114.38 1066.82 213 228 246
425.185 267.282 1060.21 233 237 245
426.174 367.16 1052.5 217 233 247
425.167 162.327 1064.01 224 228 248
425.316 179.375 1066.72 224 224 243
426.161 265.29 1061.25 241 237 247
427.294 380.165 1053.29 210 219 247
426.748 224.357 1065.95 203 240 248
428.284 379.156 1053.31 207 224 245
428.668 419.148 1052.62 196 228 249
426.735 119.385 1068.75 210 223 247
429.694 321.268 1061.31 212 243 247
430.5 403.184 1055.91 212 219 246
428.548 102.455 1074.05 216 226 245
429.042 153.428 1072.18 212 227 248
429.945 245.342 1066.61 229 235 246
431.433 396.176 1056.03 217 225 245
428.808 24.426 1073.39 187 214 227
429.275 76.5359 1079.5 205 217 236
431.252 277.326 1066.07 231 243 249
431.521 304.287 1063.61 238 251 247
432.148 165.431 1073.99 189 227 247
433.074 259.328 1067.38 233 241 248
434.956 444.949 1044.21 1 11 19
433.076 159.474 1077.1 219 233 246
433.422 194.433 1074.5 214 228 245
433.308 80.5142 1080.45 200 207 241
434.23 174.428 1074.85 221 232 246
434.268 178.427 1074.78 212 219 245
436.443 400.23 1061.99 211 221 246
433.727 19.4993 1080.5 186 197 227
435.594 212.411 1074.2 217 231 247
436.151 269.366 1071.23 226 243 250
435.678 119.505 1080.79 193 221 248
436.09 161.462 1078.08 220 222 244
436.277 179.408 1074.77 210 228 246
436.585 211.401 1074.22 216 229 247
437.252 280.371 1072.05 240 254 251
437.948 352.34 1069.82 224 226 245
438.015 358.305 1067.71 222 236 247
438.303 387.265 1065.22 224 218 243
437.292 182.449 1077.72 209 232 247
437.628 217.442 1077.13 202 231 249
437.964 251.401 1074.55 228 234 248
438.055 261.417 1075.37 229 231 248
438.895 347.349 1070.91 236 236 245
439.251 382.273 1066.31 224 238 247
439.63 420.215 1062.66 57 82 112
439.716 427.145 1058.54 16 37 70
437.125 62.5138 1082.78 202 222 238
438.393 193.454 1078.54 206 222 246
439.521 309.381 1073.56 247 243 247
439.086 163.519 1083.06 203 221 245
439.71 227.473 1079.96 219 238 248
440.559 313.37 1073.5 232 239 246
440.642 220.464 1080.09 225 231 243
441.497 307.379 1074.6 231 240 247
441.79 337.356 1073.09 230 228 246
441.566 213.49 1082.21 222 203 245
441.791 236.469 1080.82 232 236 244
442.132 270.411 1077.24 228 243 249
442.521 310.386 1075.56 224 237 247
442.67 326.4 1076.28 227 235 247
440.703 18.4842 1083.55 191 213 224
441.145 67.5775 1088.71 207 213 239
441.389 93.5896 1089.27 207 222 244
442.018 157.526 1085.17 217 227 248
442.441 200.483 1082.44 220 230 245
442.998 258.472 1081.45 236 241 248
443.295 288.432 1078.94 229 243 248
450.832 515.769 -12.0907 1 1 1
441.539 2.51201 1085.83 179 203 220
443.815 239.466 1081.78 226 230 248
443.863 244.465 1081.69 235 238 246
444.252 284.441 1080.01 229 242 249
444.305 289.423 1078.93 241 240 247
444.415 301.437 1079.72 231 234 245
444.852 345.378 1075.97 225 232 245
451.736 505.762 -11.9149 5 2 1
451.783 510.761 -12.0003 1 3 1
451.808 516.88 -5.10392 1 3 1
452.051 579.101 65.8428 1 1 1
442.439 -4.37628 1092.95 177 203 221
442.626 11.5008 1085.68 187 205 225
443.015 53.5441 1087.96 207 214 235
443.452 100.586 1090.16 201 223 246
443.529 108.585 1090.02 212 222 244
443.773 132.529 1086.61 197 226 249
446.452 406.305 1071.93 122 139 158
453.226 563.981 1.09717 1 1 1
443.664 15.4905 1085.61 183 205 230
444.524 108.592 1091.02 209 224 242
444.62 118.591 1090.85 198 221 251
444.826 139.569 1089.5 217 227 247
445.83 242.498 1084.74 230 239 246
446.122 271.441 1081.24 233 219 246
453.491 483.867 -4.53047 1 2 1
453.51 485.866 -4.56463 1 1 1
453.577 492.865 -4.68418 1 1 2
453.884 524.859 -5.23071 1 1 1
444.712 22.5481 1089.5 160 205 222
445.125 66.5739 1090.75 201 214 233
445.941 152.592 1091.28 199 227 248
446.436 202.531 1087.42 214 234 249
447.295 289.428 1080.94 238 240 247
448.274 390.375 1077.21 213 236 251
448.327 395.356 1076.13 130 184 210
454.078 440.866 -3.79115 1 1 3
454.145 447.864 -3.9107 1 2 1
454.327 466.861 -4.23521 1 1 1
454.418 472.74 -11.3366 1 1 1
445.727 24.5553 1090.47 177 204 224
447.085 167.579 1091.03 214 226 246
447.46 205.538 1088.38 206 233 250
455.337 467.851 -4.24736 1 1 1
455.879 573.475 89.9611 1 1 1
448.513 210.51 1087.3 221 235 246
456.231 456.844 -4.05457 1 1 1
456.933 540.17 14.5247 1 1 1
447.746 27.57 1092.43 180 208 223
450.722 335.442 1083.17 212 224 248
449.495 109.682 1099.03 204 226 246
449.793 139.642 1096.52 231 226 246
450.714 232.521 1088.93 217 233 246
451.3 293.509 1087.89 236 237 247
451.343 298.525 1088.8 236 247 245
451.583 320.418 1082.43 232 228 243
451.766 340.449 1084.09 230 236 245
450.12 68.6115 1095.74 198 214 235
450.461 105.656 1098.1 211 220 242
450.865 146.614 1095.4 221 221 243
452.189 281.485 1087.1 233 239 245
452.689 333.475 1086.21 221 223 245
459.251 466.053 9.80425 1 1 3
459.736 523.265 21.8287 1 1 1
459.819 538.484 34.5704 1 2 1
460.015 555.361 27.2812 1 1 1
451.975 158.619 1096.2 212 227 246
452.599 222.572 1093.11 227 229 245
453.238 288.543 1090.98 234 239 246
454.318 396.368 1080.14 52 60 109
454.526 318.527 1090.48 224 233 246
454.809 348.539 1090.96 226 227 246
454.962 362.467 1086.73 221 232 246
460.92 438.262 23.2902 4 1 2
453.514 112.677 1101 210 222 243
454.489 212.607 1096.29 224 238 247
454.503 213.589 1095.27 224 242 247
454.695 233.585 1094.93 237 239 245
455.516 317.518 1090.5 223 232 246
455.689 334.48 1088.21 227 232 246
456.265 392.401 1083.22 101 62 115
453.875 44.6294 1099.17 202 215 230
454.12 70.6416 1099.72 202 217 236
454.744 136.663 1100.59 213 230 248
455.637 227.577 1095.04 232 237 244
456.905 357.484 1088.82 213 223 247
457.044 370.43 1085.6 213 224 246
462.968 446.344 29.1625 3 2 1
456.906 255.562 1094.57 232 232 246
457.66 332.496 1090.25 232 250 244
458.451 407.225 1073.97 1 13 17
463.944 447.454 36.1492 1 1 1
464.343 485.327 28.5013 1 3 1
464.545 513.561 42.0209 1 3 1
464.964 579.285 83.9039 1 1 1
456.235 82.6202 1099.53 203 218 237
456.288 89.6702 1102.41 200 225 241
458.415 308.543 1093.67 231 239 246
458.617 328.504 1091.33 224 227 243
465.459 507.656 48.1273 1 1 1
465.781 547.871 60.4421 1 1 1
466.087 566.422 34.1218 1 2 1
457.019 60.6321 1100.91 207 214 234
457.49 111.691 1104.04 204 226 249
458.532 217.585 1097.23 217 228 246
458.666 232.616 1098.97 226 245 247
459.665 334.528 1093.23 223 236 244
466.772 553.066 72.3597 1 1 1
458.845 149.708 1105.39 200 229 248
459.873 253.585 1097.62 224 239 247
460.444 312.557 1095.61 232 239 245
461.377 305.549 1095.73 226 231 244
461.66 334.526 1094.24 232 235 244
468.219 485.734 54.5169 1 1 1
460.984 164.703 1106.14 211 226 246
461.709 238.638 1101.88 233 236 246
462.036 271.597 1099.32 220 241 247
469.593 524.717 53.8557 1 2 1
462.21 188.706 1106.74 220 226 243
462.469 213.633 1102.31 203 227 245
462.728 240.628 1101.85 233 232 246
462.772 245.644 1102.77 232 243 247
463.357 304.564 1097.76 223 237 245
463.405 309.563 1097.67 225 227 245
463.434 312.563 1097.62 221 254 246
463.631 332.542 1096.28 222 235 244
463.708 340.54 1096.14 214 231 247
464.245 391.359 1085.28 5 22 43
469.614 422.727 55.6027 1 2 2
470.694 541.927 66.5682 1 1 1
470.791 555.027 72.3453 1 2 1
462.701 135.707 1107.65 223 229 243
462.792 145.722 1108.48 208 227 242
463.2 187.697 1106.76 220 227 244
463.786 247.651 1103.74 224 235 245
470.902 452.712 55.0953 1 2 1
471.896 566.016 72.1623 1 1 1
462.659 24.6332 1104.55 199 206 223
462.673 26.65 1105.52 187 204 224
463.639 129.716 1108.76 220 226 243
464.973 266.621 1102.42 225 239 247
465.482 318.577 1099.53 218 246 251
466.034 373.48 1093.59 21 139 160
465.594 227.636 1104.09 231 233 245
464.75 35.6634 1107.37 196 210 224
465.399 105.736 1111.18 215 223 239
465.696 136.73 1110.65 225 223 242
466.133 180.67 1106.9 218 235 247
467.122 281.582 1101.17 234 236 246
474.781 560.194 84.2776 1 1 1
89.2776 99.6658 60.9409 27 1 2
93.3785 107.208 41.7761 30 38 66
94.1912 93.1285 86.0829 46 42 60
96.0396 81.7387 116.329 17 41 61
99.789 62.8945 173.739 14 27 55
100.076 84.4307 104.269 44 37 63
100.791 62.9866 178.738 18 38 54
103.265 98.6257 67.9599 32 38 60
108.702 426.736 640.158 66 176 230
104.802 63.8269 173.717 13 41 47
107.312 102.17 48.8795 14 34 73
113.635 421.733 643.263 42 112 158
110.393 108.283 8.74057 16 38 73
111.17 91.5203 68.1073 16 30 68
112.444 112.107 1.65761 21 42 75
112.798 63.4872 162.719 32 34 48
118.204 94.0242 49.0479 19 43 70
119.165 91.1383 55.1099 11 40 65
120.066 83.6551 80.2731 2 38 69
125.011 449.485 685.683 1 96 148
130.121 457.605 694.512 39 175 249
130.745 429.777 656.09 51 154 222
132.547 565.098 244.142 47 48 106
127.374 106.759 -5.23592 254 254 254
131.934 443.625 696.807 69 178 242
128.113 87.1452 61.1926 11 39 70
128.324 103.042 8.84535 254 254 254
130.212 94.567 35.0294 31 47 72
138.595 568.523 268.073 174 177 194
132.975 76.7359 92.4176 15 35 65
137.895 440.714 704.868 17 158 223
139.559 490.002 718.83 79 186 232
140.487 560.498 268.242 169 151 185
141.599 493.016 720.766 1 147 203
141.68 499.014 720.64 101 159 210
142.343 549.883 240.459 105 117 135
141.66 423.222 684.232 28 86 141
142.166 460.78 710.444 40 158 219
143.706 576.748 281.901 161 170 185
138.294 100.761 1.8887 29 1 58
143.977 446.758 710.74 26 140 182
144.018 449.799 712.676 39 145 196
144.895 440.662 706.867 17 113 163
146.099 455.77 712.549 37 145 189
146.3 470.723 710.233 21 66 120
146.313 471.723 710.212 11 54 122
141.922 72.7428 98.5004 31 36 59
142.081 84.7043 49.2369 41 42 70
147.259 467.711 710.296 10 63 149
147.286 469.71 710.254 24 71 119
147.382 476.793 714.105 15 68 122
147.531 487.895 718.872 1 65 124
148.382 476.779 714.105 8 77 121
143.793 63.099 116.707 16 30 58
143.87 68.8438 104.583 50 39 62
144.081 84.6774 49.2368 5 34 72
150.484 560.258 263.243 120 153 167
150.259 467.671 710.296 4 83 126
150.626 494.937 722.723 29 82 112
151.387 553.057 254.393 165 163 177
146.154 90.2264 29.1145 42 41 72
150.646 422.144 686.252 3 66 82
151.826 435.485 702.974 1 74 124
154.352 474.572 708.149 5 67 135
155.332 548.899 249.478 134 122 139
154.896 440.612 710.866 2 74 89
155.017 449.651 712.676 2 81 75
155.098 455.649 712.549 2 58 117
155.324 472.475 704.192 2 76 129
156.283 469.463 704.255 1 67 116
156.404 478.46 704.065 10 83 139
157.429 556.081 259.328 128 132 164
157.004 448.667 714.696 1 1 9
157.084 454.581 710.57 1 62 111
159.388 553.055 259.391 156 160 180
160.36 550.937 254.434 137 170 171
160.665 573.521 281.964 167 144 159
154.89 70.3153 86.5447 17 33 64
154.913 72.0613 74.5052 15 36 68
160.851 437.279 698.932 2 45 112
162.976 523.225 -14.0409 169 186 206
162.715 427.171 695.144 235 129 219
164.748 579.655 290.835 159 164 177
164.761 580.655 290.814 152 161 175
163.534 413.76 676.422 13 72 131
164.385 402.8 631.643 4 127 175
166.244 542.352 230.608 103 120 133
166.293 470.159 696.235 9 55 95
167.692 575.51 285.92 156 155 179
166.477 409.531 667.509 23 75 134
166.702 426.159 697.164 1 104 147
167.419 481.564 52.8519 162 184 223
168.553 565.205 272.134 160 155 177
167.987 447.308 704.719 21 100 138
168.28 469.175 698.256 2 49 98
169.28 469.161 698.256 1 44 99
169.796 433.159 699.016 6 81 126
170.63 497.173 83.5281 165 180 214
166.032 80.9604 29.3037 8 24 47
170.56 415.665 676.38 10 88 129
171.475 485.544 101.777 158 188 217
171.83 512.029 77.2128 161 184 215
172.273 544.482 240.564 110 119 142
172.861 514.268 89.1678 159 183 217
172.342 399.588 626.708 2 57 119
173.824 511.509 101.228 169 180 214
174.184 537.929 215.696 120 112 142
174.318 547.749 254.497 154 158 181
174.374 551.854 259.412 159 161 161
174.473 483.385 711.957 87 146 194
174.968 522.104 130.011 163 183 213
175.525 563.111 272.176 147 153 172
169.288 25.6494 17.4676 39 2 11
174.713 426.967 693.144 31 70 120
176.226 465.068 698.34 10 47 112
176.499 485.358 711.915 118 174 195
175.911 368.936 172.253 196 201 236
176.508 411.826 640.451 1 43 98
177.2 463.098 700.382 1 57 106
178.289 545.591 249.54 136 147 157
172.901 71.1438 42.5116 4 6 20
176.85 364.367 193.354 181 193 226
177.945 444.133 702.782 14 8 104
178.498 485.246 707.915 158 184 237
178.471 484.991 174.803 165 186 218
179.746 579.454 290.834 139 146 165
179.171 460.987 696.425 1 49 117
175.412 109.26 1.69709 18 63 110
178.973 373.464 199.162 183 197 230
179.862 437.981 696.91 2 58 118
180.569 492.194 185.653 156 183 220
175.589 47.7865 75.0109 30 10 54
176.754 134.661 21.1648 33 62 112
181.008 375.964 224.114 179 196 234
181.82 434.87 692.974 9 66 117
182.965 521.602 206.036 161 185 218
177.018 5.27976 99.9133 1 40 79
181.464 335.47 248.975 176 200 231
181.875 366.059 229.324 203 200 229
182.464 408.556 631.516 39 68 114
183.051 451.978 698.614 2 55 107
178.126 13.2638 99.7443 24 47 75
182.088 307.353 291.577 85 171 213
182.772 358.365 244.49 190 200 231
183.132 385.146 233.922 190 191 230
183.718 427.339 669.127 1 46 90
183.816 434.569 679.977 10 53 108
179.222 20.3748 105.595 4 34 84
179.688 55.1105 92.8589 13 40 88
180.085 84.7211 74.2296 27 53 102
185.141 458.738 688.468 1 31 98
185.443 481.153 708 169 218 233
186.092 530.981 225.841 154 183 213
180.145 14.6166 117.719 16 42 76
180.807 63.9676 86.6702 2 26 63
180.863 68.093 92.5844 14 25 67
181.128 87.8334 80.1649 27 61 103
184.141 311.24 287.494 191 199 230
184.562 342.639 258.825 182 196 229
184.79 359.633 258.466 184 197 231
185.621 420.146 661.277 3 53 82
185.677 424.271 667.191 12 45 91
186.389 477.099 706.084 14 68 90
181.093 10.731 123.802 2 42 74
183.157 164.571 20.5311 1 1 9
185.887 366.808 267.316 190 198 233
186.451 407.545 633.536 6 81 126
188.194 538.458 249.688 174 184 222
188.669 573.743 262.946 7 19 4
187.993 447.701 688.701 2 40 88
188.943 519.746 264.086 175 185 213
189.575 566.732 263.093 46 1 109
183.066 8.54948 163.856 52 37 72
189.461 483.85 269.845 155 189 223
185.469 113.152 97.6329 1 14 20
187.789 284.933 323.056 178 205 240
190.224 464.838 696.34 10 72 111
191.205 539.115 282.68 175 197 227
185.478 39.2807 152.204 9 38 85
185.634 50.918 134.955 17 33 83
185.676 54.0226 139.89 1 23 76
185.797 63.0198 139.7 23 36 81
186.392 107.394 109.757 4 7 24
186.874 143.348 59.9867 1 2 4
190.152 386.424 298.907 172 190 235
192.506 561.453 299.212 189 193 224
186.123 12.7401 174.769 4 34 78
187.586 121.869 85.4455 7 1 11
187.804 138.209 54.0935 1 2 2
192.937 519.178 287.101 150 186 214
193.707 576.435 298.895 143 194 222
187.653 52.2497 151.93 1 18 92
191.342 326.049 330.188 192 196 232
191.556 341.96 325.851 185 196 234
193.155 459.715 692.446 1 71 109
194.223 540.433 299.655 166 190 225
194.289 545.347 295.55 182 203 225
194.509 561.616 308.21 181 189 222
189.21 93.7375 128.048 39 7 11
189.338 103.354 109.841 14 1 12
189.873 143.307 59.9865 1 1 2
191.342 251.587 356.766 104 191 238
191.462 260.5 352.577 160 200 243
192.545 341.115 333.871 191 195 234
194.004 448.515 683.68 1 47 88
195.526 562.877 321.186 190 196 227
189.806 63.5571 167.694 68 165 91
193.173 313.385 347.459 181 197 233
194.397 403.502 636.62 3 47 59
195.397 478.89 322.959 180 188 219
196.065 528.6 308.906 173 185 215
190.178 16.6775 221.695 37 40 77
193.759 282.55 356.111 186 197 224
193.972 298.461 351.775 178 195 235
195.065 379.823 321.05 149 228 251
197.123 532.86 321.819 169 194 220
191.39 32.448 211.36 39 56 85
192.117 86.8261 134.194 1 3 13
194.733 280.622 360.153 198 195 229
196.038 377.81 321.092 163 193 147
198.276 468.687 694.255 1 42 85
199.155 535.191 338.773 165 196 236
195.832 213.44 400.579 1 27 110
196.312 249.175 387.822 182 193 228
196.753 282.017 380.127 193 203 230
198.827 435.325 677.956 1 79 114
199.167 460.549 688.426 1 58 89
200.776 581.332 345.8 196 201 224
197.755 282.151 387.125 191 202 229
198.628 347.068 382.754 183 189 236
199.99 447.392 681.702 1 53 98
194.854 -7.55857 261.214 1 30 69
197.719 204.943 425.764 34 146 139
198.411 256.484 403.671 181 198 228
200.754 429.898 659.066 38 50 59
202.241 541.486 354.642 176 187 223
195.854 -7.57201 261.214 29 36 71
203.581 566.718 366.112 191 194 226
197.236 20.8988 236.607 28 3 22
200.63 272.747 417.33 188 196 231
198.522 42.2452 206.149 22 2 8
198.872 68.4345 167.588 7 11 11
201.887 291.812 420.928 182 198 236
202.112 308.575 409.571 193 201 238
204.884 514.877 375.208 164 181 219
199.056 7.38295 260.897 7 4 12
199.342 28.7639 231.439 17 2 8
200.076 83.7194 134.257 30 69 90
201.988 224.968 429.341 185 196 227
204.725 427.782 656.108 23 74 97
202.457 185.347 448.181 136 193 228
206.929 518.165 390.141 172 179 216
206.956 520.165 390.099 162 185 215
207.185 537.16 389.74 171 189 220
207.346 549.156 389.487 191 201 226
200.869 -6.534 266.192 1 8 16
204.49 262.225 442.556 187 194 233
205.24 317.996 431.376 191 203 237
205.359 326.909 427.187 196 205 234
206.502 411.232 631.452 48 73 88
207.945 519.321 398.118 168 187 215
207.971 521.236 394.077 139 189 215
208.255 542.377 400.632 180 191 221
208.336 548.375 400.505 185 200 230
207.78 431.804 659.023 32 64 96
209.161 535.365 400.78 170 188 221
202.909 -3.56184 266.128 6 5 6
203.51 41.2838 211.169 1 2 2
205.942 221.422 453.419 181 197 227
206.008 226.357 450.315 192 193 227
209.002 448.229 679.68 1 55 89
206.089 157.872 475.766 108 187 221
206.97 223.492 457.376 183 196 232
207.117 234.404 453.145 199 196 228
207.157 237.403 453.082 182 194 229
211.044 526.574 411.967 168 184 215
204.989 2.40939 266.001 1 3 3
205.198 18.0033 246.668 28 2 4
208.427 257.468 456.658 202 197 230
208.899 292.521 458.919 192 200 238
211.328 472.603 651.159 11 14 72
212.262 542.787 422.627 192 200 222
207.933 146.186 492.015 130 179 218
211.5 411.06 626.453 45 53 87
212.302 470.632 653.201 62 87 137
207.056 7.38093 265.896 2 3 2
208.828 138.366 501.182 146 198 205
210.219 241.868 476.992 169 197 236
211.289 247.043 485.884 182 200 231
213.459 407.991 624.516 23 43 75
212.424 257.111 489.672 190 198 231
213.153 162.494 509.673 173 187 215
214.798 210.466 508.66 187 195 227
215.385 179.673 519.312 174 190 223
217.075 305.422 506.654 190 202 240
218.499 410.965 626.452 55 52 89
216.184 164.728 522.628 163 188 222
217.995 299.495 510.78 197 198 233
218.37 327.402 506.19 187 193 236
220.159 459.908 671.428 7 48 67
218.367 252.687 520.77 210 204 234
222.28 543.856 479.613 208 218 194
217.93 145.833 529.028 183 188 216
218.04 154 536.857 175 172 216
218.563 192.882 531.035 166 192 228
221.763 430.468 652.045 4 55 79
221.984 446.885 671.703 5 117 133
223.254 541.928 483.655 137 62 1
220.774 282.946 534.134 191 201 241
221.149 310.832 528.544 200 203 236
219.976 149.164 545.961 170 180 216
220.929 220.079 541.462 183 197 229
221.412 256.004 537.703 196 201 231
222.15 310.86 530.543 196 204 235
222.231 316.922 533.416 185 200 242
224.21 463.663 662.346 1 29 53
219.869 66.7048 572.707 160 151 190
221.864 215.194 547.566 198 196 226
222.321 249.183 546.849 176 199 235
222.401 255.118 543.722 200 201 233
223.375 253.168 546.764 185 200 233
224.143 310.319 553.559 189 207 236
225.134 383.887 580.011 1 3 10
225.202 388.928 581.905 1 3 9
226.053 451.914 675.596 6 38 73
226.258 467.297 646.265 7 41 56
227.696 574.645 519.971 185 202 220
223.99 224.523 564.372 179 196 229
226.205 389.147 592.903 1 4 7
229.669 572.619 520.013 178 192 216
223.595 46.2275 600.144 152 160 188
224.085 82.7726 578.368 154 163 195
224.14 86.8136 580.283 151 168 194
226.434 257.485 563.676 184 197 230
228.997 447.791 671.681 1 30 67
229.105 455.788 671.513 1 20 46
224.913 69.9321 586.64 162 161 188
225.715 55.1345 596.955 170 160 188
226.181 89.8491 583.219 152 166 200
228.155 236.697 575.117 206 204 232
228.518 263.689 574.546 190 211 236
229.214 315.483 564.451 189 201 239
230.457 407.763 624.516 1 12 17
230.554 414.951 633.366 1 33 33
230.763 430.431 656.044 1 34 56
232.634 569.938 537.072 151 195 217
228.163 162.876 584.677 175 189 221
228.553 191.867 584.065 185 194 224
229.129 234.727 577.158 188 200 229
233.728 576.923 536.924 175 192 216
232.05 377.492 613.151 1 23 26
234.81 583.034 542.796 183 193 214
233.066 378.668 622.128 2 25 14
233.227 390.622 619.875 1 3 7
234.256 467.105 642.266 1 20 26
230.216 92.3435 609.171 161 175 204
231.839 213.094 596.618 188 194 232
233.279 319.517 805.417 201 210 239
233.528 338.11 786.021 33 79 109
234.484 409.708 624.473 1 2 3
235.678 498.533 615.596 20 34 21
233.472 260.172 600.625 191 201 231
233.929 294.161 599.907 188 208 236
233.264 170.292 607.524 187 189 223
233.519 189.286 607.122 188 195 230
234.554 266.262 605.497 196 207 235
235.211 314.491 805.523 192 213 227
233.191 90.4516 616.211 170 174 201
235.205 240.299 608.045 180 196 234
237.953 444.439 660.747 2 52 93
238.19 462.137 646.37 1 9 10
233.847 64.8052 633.756 149 170 194
234.354 102.54 620.957 172 179 208
235.617 196.51 618.972 164 198 231
236.181 238.455 616.086 175 207 237
236.463 259.448 615.642 192 201 234
237.475 334.163 791.104 22 3 9
234.833 63.7498 631.778 159 170 193
235.275 96.6761 628.081 162 173 216
239.208 389.091 645.911 6 16 31
238.6 269.566 622.43 219 207 236
238.905 292.306 609.947 202 222 239
241.819 508.935 638.379 5 17 29
242.009 523.036 643.082 7 27 20
242.711 500.923 638.548 11 22 30
243.06 526.873 636 3 27 28
237.24 19.5047 669.719 155 165 188
239.017 151.83 636.918 169 192 225
239.731 204.855 637.799 183 196 233
239.771 207.854 637.735 164 198 232
240.629 271.686 629.386 193 200 240
242.883 439.267 655.853 1 4 4
243.179 461.26 655.389 1 3 2
243.595 492.208 652.735 1 29 25
243.7 500.016 643.568 7 25 32
240.746 205.947 642.776 187 198 234
242.079 304.59 814.732 68 77 125
242.25 317.333 802.46 37 68 115
242.813 359.617 673.539 3 13 24
244.945 518.229 654.185 1 25 18
245.8 582.005 595.826 172 195 213
240.322 100.072 650.013 144 181 216
240.764 58.4521 668.896 160 171 202
240.842 64.3024 661.771 165 171 204
247.226 539.111 649.743 1 23 31
242.888 142.117 653.125 183 193 224
243.238 168.172 655.576 186 202 227
243.601 195.163 655.006 182 203 232
243.709 203.161 654.837 194 206 234
244.631 271.78 636.384 205 202 215
247.733 502.384 663.521 1 15 18
248.806 582.387 615.821 153 191 210
242.351 27.7094 682.547 149 165 194
244.039 153.29 661.891 185 202 227
244.872 215.27 660.582 200 200 232
246.25 317.279 802.46 34 76 117
243.953 72.4918 672.599 171 174 206
245.764 207.217 658.751 190 208 232
246.828 285.825 829.13 10 75 125
249.6 492.508 670.731 9 20 15
244.446 34.7647 686.398 176 167 194
246.324 174.446 670.445 191 196 232
247.867 288.747 826.067 49 74 124
248.329 323.145 797.334 28 72 113
248.565 340.801 780.958 189 190 187
244.936 -3.1946 689.2 157 165 187
246.573 118.598 678.626 195 189 221
247.149 161.437 670.72 189 197 225
247.459 184.472 672.234 183 206 232
249.733 353.609 677.664 10 73 106
246.73 55.8579 691.954 160 174 205
248.822 211.492 673.664 196 190 232
250.986 297.577 819.878 30 74 120
251.368 326.082 796.271 26 76 117
249.924 144.676 684.076 179 201 227
251.682 274.93 837.36 38 21 60
249.492 38.0554 703.331 144 171 196
250.053 79.8522 693.446 159 185 212
250.093 82.8091 691.384 160 181 212
252.722 277.894 836.297 113 66 122
254.03 375.004 888.258 117 124 185
251.403 105.831 692.897 174 185 223
255.258 391.922 884.9 32 86 126
251.452 35.0717 705.394 176 169 199
252.043 79.0156 702.465 149 178 211
252.594 120.003 701.6 178 191 221
252.647 124.002 701.515 163 190 225
255.579 341.77 783.936 88 121 186
252.132 11.2346 713.899 153 168 195
253.057 80.0863 706.443 178 181 213
253.285 97.0388 704.085 182 186 217
254.79 208.961 699.721 195 209 245
255.206 239.909 697.067 193 205 239
257.139 383.024 891.088 60 55 117
253.484 37.4241 723.347 170 170 200
254.715 129.015 703.409 159 198 228
254.944 146.01 703.05 186 199 229
256.617 270.012 844.463 1 6 13
256.906 291.583 824.004 34 72 121
254.941 71.3578 720.63 178 184 212
255.021 77.3559 720.503 171 189 215
255.462 110.134 709.809 191 193 216
256.792 209.061 705.719 202 211 237
255.888 67.43 724.714 154 186 213
257.162 162.189 712.71 172 200 234
257.283 171.186 712.52 189 203 233
259.064 303.362 814.752 42 74 117
259.658 347.207 901.846 97 129 187
259.74 353.331 907.718 85 128 184
258.861 214.159 711.612 199 215 243
261.102 380.225 903.148 68 76 119
261.299 394.967 890.835 73 92 128
257.742 56.5544 731.944 176 182 214
259.311 173.243 716.477 192 202 235
259.969 222.186 713.443 203 216 240
261.721 277.731 834.297 76 72 78
263.668 422.29 907.261 11 73 127
260.52 114.404 725.721 178 194 223
262.2 239.322 721.082 198 216 244
262.294 246.362 722.934 204 211 243
259.926 -4.25572 743.23 165 169 190
260.692 52.7686 744.026 155 182 210
261.093 82.5903 735.394 178 190 222
264.129 308.167 808.648 2 3 7
264.784 356.538 920.651 70 136 177
262.642 123.437 728.53 199 192 227
265.771 355.503 919.672 21 119 133
265.983 371.351 912.336 1 28 76
266.364 399.75 883.73 6 13 57
264.385 178.66 739.366 202 206 232
264.398 179.617 737.345 203 207 236
264.586 193.613 737.05 191 208 238
266.679 348.661 927.818 89 128 187
267.233 389.972 894.939 5 22 82
263.279 21.9491 754.678 166 174 200
263.736 55.9806 755.96 173 188 212
266.8 283.556 829.171 21 72 119
267.626 344.67 928.902 85 132 189
268.036 375.238 908.253 2 31 72
268.624 419.055 899.326 1 28 70
269.77 504.776 743.481 11 19 22
264.521 39.9722 756.297 183 190 211
264.924 69.9206 753.664 189 184 218
265.875 140.708 743.167 184 198 233
269.167 385.031 899.043 11 37 75
269.429 404.603 878.626 1 14 53
269.941 443.036 756.787 9 33 41
270.272 392.825 889.877 1 21 68
265.973 -0.851812 766.161 168 179 204
266.431 33.222 769.442 164 180 207
268.696 201.747 745.879 193 205 237
273.796 581.163 715.861 157 190 211
268.676 125.842 751.482 213 202 231
268.837 137.859 752.229 188 199 232
271.982 371.228 910.336 2 38 84
272.581 415.791 889.391 6 25 71
274.32 545.625 738.616 5 33 35
268.901 68.1419 766.703 180 185 216
273.284 393.743 887.856 13 30 68
273.887 438.983 756.871 1 3 21
274.157 459.083 761.448 6 16 17
274.212 463.123 763.363 1 7 9
275.055 525.914 753.035 1 17 28
275.663 571.245 721.071 167 193 213
269.419 32.2875 774.462 161 181 206
270.826 137.001 760.248 187 200 229
274.126 381.965 899.107 1 35 74
274.954 443.968 756.766 1 11 19
275.157 459.069 761.448 5 14 15
271.063 80.1746 769.45 188 185 217
271.463 109.996 760.818 180 196 230
272.633 196.99 759.981 187 209 248
274.156 309.713 935.64 55 71 110
272.398 105.09 765.922 188 194 230
272.988 149.034 762.994 186 201 237
273.366 177.067 764.402 194 206 243
275.615 343.795 939.921 1 37 98
276.898 439.837 751.851 1 4 20
277.829 509.027 760.393 3 7 19
272.262 20.5253 787.712 155 179 207
272.515 39.3505 779.313 171 183 208
272.609 46.3905 781.165 185 187 209
274.945 220.146 768.493 197 215 238
276.022 299.711 936.851 48 94 142
276.771 355.44 923.671 23 51 89
279.36 548.599 740.552 176 188 222
279.41 552.366 729.47 159 189 219
276.867 288.526 834.064 120 146 219
276.98 296.572 930.915 69 88 137
277.241 315.924 947.51 58 57 99
278.19 386.72 890.003 4 37 73
278.579 415.668 887.391 1 38 74
278.817 433.812 751.978 1 1 92
279.021 448.913 756.66 1 16 14
279.867 511.893 755.33 3 13 23
275.012 76.3542 780.531 166 191 226
278.58 341.135 957.98 50 51 96
278.599 342.628 933.943 5 35 84
279.718 425.947 901.177 59 49 74
275.706 53.5169 789.015 168 191 222
275.947 71.469 786.635 191 192 221
276.872 140.279 777.181 188 202 238
277.855 213.361 780.638 192 218 245
282.819 582.654 744.833 168 188 212
277.35 101.446 786.002 181 201 232
278.68 200.352 780.913 198 212 241
278.882 215.41 783.595 200 215 243
280.393 327.155 960.275 105 133 187
280.744 353.387 923.713 16 45 88
281.386 401.337 873.69 11 26 47
282.479 482.967 760.941 1 1 1
283.765 578.684 746.917 180 187 214
277.075 6.61028 795.006 171 181 206
277.25 19.6062 794.732 155 186 205
277.56 42.6201 795.246 190 184 206
279.64 197.381 782.975 201 215 243
281.486 334.097 958.128 91 133 194
283.479 482.954 760.941 1 1 85
284.537 561.676 747.276 195 194 220
278.737 55.7715 802.97 179 188 209
282.063 302.671 938.786 96 96 106
282.269 317.983 953.467 1 38 110
283.228 389.504 882.941 1 6 3
283.805 432.851 756.998 199 210 242
284.25 465.946 761.3 73 171 227
285.551 562.704 749.254 182 194 216
285.564 563.704 749.233 181 184 218
279.374 28.7665 803.539 164 184 207
279.629 47.7394 802.139 164 194 207
282.382 252.506 789.812 209 215 244
282.562 265.706 846.546 78 146 209
283.555 339.217 965.02 1 1 89
282.938 219.503 790.509 196 212 248
285.703 424.762 896.199 1 1 95
287.018 522.986 764.096 162 194 234
281.699 52.9009 811.031 169 189 216
282.543 115.691 800.703 185 204 231
282.891 141.577 795.155 200 211 235
283.965 221.51 791.467 196 213 248
287.522 486.089 769.876 185 202 235
285.237 241.659 799.043 215 211 242
287.137 382.706 895.086 209 222 245
287.756 428.733 896.114 193 210 249
288.965 519.065 769.179 173 198 229
289.625 568.092 770.144 159 183 219
283.217 17.0542 819.789 166 182 208
284.1 82.738 804.399 188 202 224
285.861 213.718 802.633 197 219 248
288.715 425.7 895.178 115 131 129
284.687 51.9876 817.051 164 190 218
285.195 89.7857 807.25 196 200 219
285.975 147.81 808.026 196 205 232
289.279 393.316 877.857 1 23 75
285.285 22.0891 822.683 163 187 209
285.863 65.0334 819.775 197 187 220
291.685 498.201 777.62 172 200 230
292.344 547.164 775.586 179 195 221
290.636 345.318 926.881 25 45 81
290.873 362.954 909.505 12 54 99
292.23 464.303 783.337 183 210 241
292.297 469.302 783.231 197 207 240
293.211 537.28 781.796 179 192 225
293.291 543.215 778.67 170 197 225
293.762 578.225 778.931 177 194 216
287.272 21.0836 823.704 164 189 207
287.327 25.1246 825.619 176 188 208
287.623 47.1388 826.154 155 187 216
287.797 60.1347 825.88 172 190 223
292.989 446.359 786.716 196 210 244
293.365 474.329 785.125 219 206 241
294.009 522.272 782.112 187 198 225
289.83 136.97 818.255 200 215 236
289.87 139.948 817.192 208 209 236
293.396 402.006 865.67 7 17 34
295.696 573.306 784.035 185 190 220
290.495 112.028 821.782 204 208 235
292.027 225.971 818.376 191 225 247
292.134 233.927 816.207 202 220 248
293.313 321.109 966.4 63 92 140
294.728 426.598 894.157 210 227 209
293.028 226.021 821.375 202 218 247
293.135 233.955 818.207 202 220 247
294.029 300.131 920.832 54 2 28
295.184 386.217 877.005 23 1 46
296.313 470.417 791.208 194 197 237
291.746 56.2511 833.962 184 190 221
291.786 59.2079 831.899 186 194 220
292.537 115.127 827.718 192 203 237
292.671 125.103 826.507 191 214 240
297.341 472.508 796.165 193 210 241
291.981 -0.638953 840.164 159 181 208
293.055 79.2515 834.476 187 206 228
294.222 166.076 825.641 196 212 251
297.067 377.425 888.192 42 49 80
298.343 472.621 802.163 198 205 244
294.003 75.3237 838.56 187 203 226
295.263 169.083 826.577 197 213 244
295.439 182.185 831.302 201 213 244
295.545 190.077 826.134 208 206 247
297.381 326.138 970.293 61 90 142
299.143 457.718 807.479 176 206 241
300.445 554.582 800.432 161 193 224
294.038 3.52289 849.078 167 184 214
294.347 26.5157 848.592 162 182 214
294.681 51.3601 841.066 187 194 221
295.338 100.26 836.032 196 206 234
298.423 329.25 976.228 46 95 142
295.549 41.5609 851.275 184 189 218
300.29 394.041 871.837 1 33 60
301.238 464.752 810.331 196 203 241
301.655 495.743 809.676 185 202 239
302.339 546.684 806.6 175 195 224
296.496 37.5909 853.359 157 186 221
298.912 217.302 838.561 192 210 247
301.984 445.871 816.73 202 212 250
302.896 513.724 809.296 187 207 228
302.975 519.616 804.17 181 201 236
297.375 28.5591 852.549 173 193 219
297.55 41.5762 853.274 150 188 220
297.737 55.5296 850.979 166 191 223
299.414 180.279 838.342 209 218 245
303.32 470.808 814.203 204 210 238
304.044 524.707 809.064 153 203 231
299.262 94.525 851.156 191 206 236
299.409 105.458 847.924 199 213 239
299.471 35.6778 859.399 170 191 219
300.021 76.5805 854.535 190 199 231
301.726 203.393 844.855 212 213 243
305.603 491.88 818.758 192 205 236
305.871 511.81 815.337 184 220 234
300.217 16.7759 864.799 159 188 216
301.785 133.423 847.333 215 216 239
303.008 224.394 845.411 190 221 247
307.034 523.878 819.082 178 198 229
307.45 554.847 817.428 183 188 222
301.15 11.7429 863.905 168 186 209
301.875 65.726 862.765 188 198 222
302.318 98.6312 858.069 199 205 235
304.426 255.434 847.756 212 220 245
306.602 417.165 881.349 25 41 92
307.456 480.92 821.99 180 207 240
307.927 515.909 821.251 183 208 235
308.061 525.906 821.04 193 203 233
305.25 242.404 847.031 209 217 245
308.256 465.975 825.306 202 215 244
309.789 580.002 825.898 186 192 215
303.689 51.8512 870.059 159 193 224
304.011 75.7804 866.553 195 200 228
305.178 162.605 857.718 209 216 241
307.545 338.232 981.037 40 47 71
310.211 537.044 828.805 169 202 231
310.681 571.991 826.067 176 195 217
306.058 153.637 859.907 202 213 245
306.487 185.585 857.232 204 211 245
307.361 250.606 857.859 203 218 246
307.456 257.625 858.711 210 217 245
307.671 273.62 858.374 52 111 175
307.864 287.954 874.075 125 146 207
308.658 346.843 915.84 56 77 103
308.737 352.736 910.715 23 77 115
309.222 388.943 872.942 2 14 56
310.272 467.158 835.282 198 215 240
305.167 12.9421 875.881 161 193 212
310.776 430.241 840.062 193 218 249
310.897 439.217 838.873 210 214 245
311.447 480.162 836.008 197 214 238
312.078 527.084 832.016 181 202 232
312.226 538.123 833.783 171 210 237
312.641 569.007 828.13 171 194 218
305.911 -6.04424 877.282 168 190 207
306.596 44.8764 873.206 189 196 221
308.516 187.726 865.188 208 216 246
309.892 289.968 876.032 94 149 215
310.433 329.941 969.208 29 95 140
312.595 491.145 835.775 182 199 242
313.2 536.173 836.825 169 200 232
313.322 545.191 837.635 177 202 231
308.375 102.803 869.982 208 205 236
308.642 122.691 864.561 208 220 243
309.235 166.783 868.631 206 212 246
310.39 252.692 863.816 209 226 245
314.026 523.164 837.099 188 200 232
314.752 577.168 836.959 172 197 217
310.007 149.817 870.989 215 215 244
312.933 293.033 880.967 120 145 208
314.076 378.006 879.173 7 40 78
315.409 477.257 843.069 193 214 244
315.543 487.275 843.858 195 207 239
310.008 1.11088 887.132 165 187 217
312.667 198.838 872.954 199 214 246
312.801 208.835 872.743 208 220 246
312.854 212.77 869.659 201 215 249
313.19 237.762 869.131 205 217 245
313.272 243.845 873.004 195 211 247
313.62 269.794 870.455 202 214 246
315.155 383.885 874.047 22 19 51
315.181 385.863 873.005 16 23 66
316.785 505.256 843.478 186 206 238
312.861 138.906 877.22 216 226 245
316.573 414.946 877.392 21 39 80
317.182 460.362 849.427 195 216 246
317.76 503.349 848.519 194 205 235
318.27 541.295 845.717 199 201 226
318.311 544.336 847.653 177 198 229
312.158 12.2072 892.898 188 192 213
318.076 452.435 853.595 196 216 248
318.881 512.332 848.329 195 205 235
319.486 557.36 849.378 179 191 222
319.77 578.417 851.934 179 191 220
314.473 110.015 883.831 196 212 240
317.709 350.594 909.757 72 70 115
316.091 156.008 883.859 215 202 243
317.14 233.984 882.213 213 223 245
317.825 284.926 879.136 157 214 254
318.079 303.722 916.748 60 84 129
318.859 361.838 874.511 1 11 24
320.184 460.448 855.425 201 217 243
318.651 271.98 882.41 219 219 245
318.949 294.121 888.944 95 90 157
319.458 331.735 965.167 53 93 140
320.45 405.832 874.582 17 37 64
320.518 410.873 876.476 1 50 93
316.549 41.271 898.284 173 193 232
316.966 72.2612 897.63 192 206 228
317.57 117.163 892.681 211 214 237
317.769 131.989 884.366 207 221 246
317.605 45.3618 903.199 177 206 221
320.867 288.032 886.071 224 241 241
321.12 306.744 919.684 55 81 127
321.563 339.692 916.987 29 62 100
324.006 521.537 861.136 186 197 234
318.981 73.3185 901.608 191 199 231
322.981 370.887 879.32 38 107 175
323.424 403.835 876.624 48 99 141
325.153 532.52 860.903 185 204 232
325.397 550.599 864.522 186 199 224
319.794 59.415 906.902 178 199 226
320.397 104.295 900.953 197 209 242
321.135 159.151 893.793 209 220 245
322.452 257.142 892.724 205 224 245
323.562 339.602 913.988 19 60 98
323.94 367.875 879.383 108 199 210
326.411 551.627 866.501 191 199 225
325.21 387.918 881.96 115 154 227
325.532 411.847 878.454 52 106 144
328.21 536.689 870.816 176 200 236
328.694 572.657 869.057 178 198 222
322.043 3.53998 915.083 176 185 218
325.28 244.296 901.997 207 213 246
328.352 472.801 877.167 202 212 244
329.748 576.663 869.972 183 193 219
323.259 19.5637 916.744 176 193 215
323.42 31.56 916.491 176 198 219
324.641 122.363 906.572 204 215 244
327.161 309.705 921.619 49 85 117
327.588 341.505 911.946 2 72 88
327.943 368.032 889.381 217 222 245
328.091 379.007 888.149 208 226 248
329.62 492.782 876.744 178 208 241
330.387 549.827 878.54 176 201 227
326.448 182.351 906.305 213 223 245
326.568 191.306 904.115 210 226 247
327.73 203.331 905.861 213 217 244
329.732 352.242 900.716 158 182 224
330.375 400.08 892.704 183 211 252
332.187 534.868 881.856 167 198 233
332.334 545.823 879.624 190 199 229
326.772 57.6804 923.94 189 203 232
328.381 177.368 908.41 210 223 246
328.515 187.365 908.199 216 222 245
329.605 268.382 908.488 218 229 246
330.16 309.622 919.62 49 76 112
332.059 450.966 887.628 203 219 247
332.272 466.876 883.292 197 214 248
332.541 486.87 882.869 190 214 242
332.595 490.848 881.785 182 212 239
327.368 27.5919 920.575 193 198 217
327.435 32.6325 922.469 207 197 222
327.893 66.6641 923.75 191 205 235
329.665 198.454 912.965 223 219 246
331.103 305.42 910.706 43 110 149
328.503 37.6597 924.362 166 195 235
329.041 77.6472 923.518 188 206 234
333.778 430.051 893.071 215 212 246
334.074 452.044 892.606 205 220 246
331.853 212.465 914.669 215 220 246
332.324 247.454 913.93 210 219 244
336.148 531.942 887.918 182 207 231
336.416 551.915 886.496 188 201 228
330.907 67.6868 926.728 193 202 231
331.511 112.588 921.779 201 212 244
332.491 185.502 917.239 221 227 244
335.055 376.231 903.208 211 225 246
334.339 248.532 918.908 211 220 245
334.567 265.548 919.549 219 250 245
335.774 355.309 907.651 218 226 245
336.471 407.208 902.554 197 215 249
337.72 500.094 896.592 188 208 243
336.037 300.481 916.81 136 141 184
337.868 362.322 909.503 208 225 246
340.581 564.068 896.24 180 191 225
340.688 572.087 897.071 169 197 226
334.976 72.7581 932.621 196 209 239
337.796 282.502 919.19 191 219 252
338.748 353.353 911.692 219 227 248
339.487 408.315 909.531 217 223 245
339.741 427.246 906.131 208 221 245
341.42 552.101 898.493 183 201 230
337.614 194.622 926.046 209 228 247
339.63 344.511 919.88 162 180 227
341.145 457.265 907.497 195 222 248
336.251 18.8326 937.76 181 198 220
338.588 192.63 927.088 226 224 244
339.005 223.684 929.433 221 227 246
339.595 267.586 924.505 214 225 249
340.027 299.66 927.829 118 145 186
341.085 378.361 913.164 175 221 249
341.178 385.337 912.016 200 212 246
341.783 430.323 911.066 212 216 243
337.67 49.9361 943.104 199 204 228
337.911 67.8882 940.725 187 208 237
338.676 124.765 934.523 205 216 246
339.428 180.705 931.341 223 229 245
