ply
format ascii 1.0
element vertex 1464
property float x
property float y
property float z
property uchar blue
property uchar green
property uchar red
end_header
219.93 251.261 259.386 51 67 97
217.93 263.118 278.238 56 74 103
217.858 263.49 279.164 55 72 103
216.972 269.224 285.436 49 66 97
215.912 276.249 292.256 60 76 105
215.664 277.913 293.729 65 77 107
210.86 315.166 301.085 17 6 41
218.87 282.692 195.903 5 10 11
220.972 259.737 221.49 75 86 119
221.069 253.366 245.664 46 59 90
220.964 251.56 257.185 56 67 97
221.188 248.446 262.775 54 67 101
221.352 246.428 265.759 61 74 107
219.694 257.701 275.149 61 78 107
218.428 266.568 281.214 59 72 102
217.603 271.204 290.092 55 72 100
215.946 282.477 299.481 63 80 110
215.596 285.061 300.578 66 78 111
204.741 377.337 282.128 62 42 71
204.155 382.31 281.166 48 42 76
203.516 386.38 285.965 213 254 237
220.795 272.531 207.696 42 67 99
222.097 258.391 223.199 77 89 122
222.292 255.825 227.486 70 88 122
221.875 254.054 249.773 51 68 98
222.008 252.585 251.453 52 66 97
222.253 248.196 261.878 48 68 99
219.029 269.097 284.567 55 71 103
218.173 274.282 292.142 59 72 103
217.824 276.866 293.238 60 76 105
216.866 282.971 300.435 63 77 109
216.413 286.475 301.154 65 76 109
216.032 289.608 300.947 63 76 107
211.703 324.808 300.521 10 22 41
211.631 325.18 301.447 12 30 55
221.418 276.512 203.986 29 7 24
223.356 255.575 226.589 77 86 122
223.353 252.85 238.487 64 78 104
223.27 252.496 242.944 47 72 98
223.198 252.867 243.87 50 70 97
222.814 253.274 255.561 54 65 96
223.184 249.416 259.3 50 69 97
218.743 277.36 294.192 62 74 105
207.28 373.157 281.844 18 28 57
221.446 287.466 190.946 20 12 33
224.481 254.229 228.297 73 86 121
224.542 253.131 230.904 68 86 118
224.19 252.99 243.898 53 71 101
223.879 253.025 254.664 52 68 95
220.291 273.058 293.879 60 71 103
219.869 276.013 295.9 72 73 105
219.302 279.712 299.773 60 73 104
215.065 313.266 303.257 15 16 22
206.637 386.004 284.198 184 169 169
222.499 286.491 193.581 6 10 20
223.566 274.739 207.026 37 68 100
223.904 271.43 209.461 50 77 102
224.582 264.811 214.333 69 81 107
225.012 259.855 220.678 74 85 118
225.471 251.625 240.224 63 76 104
225.182 253.112 243.926 56 73 103
224.965 254.227 246.703 53 74 102
225.957 240.121 272.972 85 89 127
224.907 247.873 276.26 67 82 115
219.42 286.294 302.542 61 68 102
217.343 303.248 302.055 68 77 102
225.779 263.092 215.116 68 81 107
225.707 263.464 216.042 68 82 110
226.049 252.703 250.641 53 70 100
225.977 253.075 251.566 53 70 98
225.996 251.801 256.401 49 62 92
225.374 251.871 277.932 59 78 108
222.667 270.896 290.611 62 72 107
221.184 280.877 299.452 62 69 102
221.112 281.249 300.378 64 69 102
220.031 289.549 302.363 56 68 100
219.198 296.185 302.875 58 74 100
209.249 381.453 282.988 2 3 61
208.899 384.036 284.084 187 102 128
224.617 285.266 195.318 10 8 23
226.935 261.197 218.128 69 81 112
227.341 252.065 243.435 61 74 105
227.197 252.808 245.286 57 74 105
227.827 240.561 276.183 76 81 119
226.849 247.941 278.545 64 78 112
226.088 254.205 278.131 58 73 105
225.286 260.293 279.946 51 59 90
225.039 261.957 281.42 51 60 90
223.267 273.425 293.964 70 73 107
223.195 273.796 294.889 62 73 107
223.123 274.168 295.815 65 73 107
222.495 278.964 297.081 64 72 103
221.826 283.583 300.577 54 68 102
218.246 311.793 304.097 33 19 30
225.906 281.902 200.011 12 4 8
228.461 255.444 224.879 76 80 112
228.594 253.975 226.559 74 78 112
228.591 251.249 238.458 59 76 107
228.333 252.187 243.463 64 76 106
228.189 252.93 245.314 59 77 106
228.116 253.302 246.24 60 74 106
227.919 253.143 253.851 47 56 90
228.427 243.09 279.536 68 82 116
225.464 265.778 285.321 60 68 103
224.723 270.769 289.741 67 73 106
224.476 272.432 291.215 64 72 107
211.963 375.981 282.156 35 38 68
211.613 378.565 283.252 20 42 85
211.541 378.936 284.177 3 1 69
226.826 282.396 200.964 2 7 20
227.534 275.229 207.139 58 75 101
229.525 255.195 223.981 75 77 111
229.647 253 229.194 67 74 105
229.461 253.566 233.274 66 72 110
229.655 251 237.56 64 75 109
229.397 251.938 242.566 67 76 107
230.244 238.576 270.686 74 86 112
230.161 238.222 275.143 74 79 110
229.944 239.336 277.92 72 78 111
224.818 275.899 299.574 57 69 102
213.038 376.457 277.727 21 19 32
212.594 377.962 286.812 193 164 142
227.654 284.536 198.009 10 8 29
229.687 264.679 212.623 57 75 102
230.517 255.317 224.01 69 76 109
230.639 253.122 229.222 62 72 101
231.495 237.76 265.709 50 70 98
231.092 239.441 272.565 65 78 105
230.586 242.043 279.044 59 77 106
230.412 243.335 279.592 58 79 105
228.479 259.546 277.254 53 73 106
228.159 261.581 279.653 33 48 87
228.015 262.324 281.504 31 45 78
226.985 268.801 289.627 68 69 102
226.491 272.128 292.575 64 70 106
225.533 278.234 299.772 56 68 102
213.658 377.712 285.914 105 60 89
231.795 251.227 232.234 59 72 106
231.298 251.829 247.08 59 71 103
231.009 253.315 250.782 49 60 93
232.414 238.254 266.662 49 75 98
232.342 238.626 267.588 54 80 100
232.29 237.723 273.348 56 70 97
229.802 282.763 201.049 11 5 30
230.377 277.065 205.543 52 71 61
232.235 258.5 220.705 64 76 105
232.49 254.836 227.598 65 72 104
232.807 250.075 237.097 71 74 108
233.282 237.845 273.377 52 57 89
233.312 237.297 274.68 49 56 89
233.24 237.668 275.605 47 55 87
229.144 267.754 289.136 59 61 95
226.786 284.195 300.718 55 63 98
215.931 376.47 282.269 35 39 81
233.421 256.056 225.02 62 73 103
233.768 250.746 235.822 67 74 106
233.168 252.268 250.29 53 56 91
234.338 239.596 264.113 44 62 88
234.357 238.322 268.948 52 50 81
234.304 237.419 274.708 48 44 79
232.41 251.081 282.04 68 62 92
230.847 263.434 283.44 40 46 76
230.064 268.248 290.09 56 64 94
226.873 291.325 302.183 60 65 94
226.143 297.042 303.073 59 69 97
225.515 301.838 304.339 61 78 101
233.45 267.009 211.981 72 82 98
234.219 258.744 220.762 61 77 105
234.771 251.594 232.319 68 73 105
235.402 239.347 263.215 38 55 86
235.152 238.285 276.587 37 41 71
233.927 247.328 280.424 43 48 71
233.33 251.575 282.993 63 63 86
232.569 257.84 282.579 39 49 82
230.17 274.104 296.39 60 63 95
229.954 275.219 299.167 55 63 95
228.493 286.652 300.945 54 63 93
218.049 375.246 284.006 15 20 65
235.539 254.831 226.757 60 69 100
235.783 250.442 237.182 65 73 107
235.244 250.867 254.256 35 46 75
235.172 251.238 255.182 34 37 70
236.558 237.452 266.227 36 44 74
235.547 242.654 279.185 21 39 57
232.253 266.652 290.901 49 59 91
229.31 288.066 301.521 45 62 91
228.507 294.154 303.336 56 72 94
235.864 262.298 218.382 58 76 101
236.458 255.325 227.711 61 72 100
236.622 253.308 230.695 63 74 101
236.794 249.29 242.045 59 69 103
236.236 250.989 254.284 31 41 74
237.006 242.724 263.065 23 44 70
237.375 238.866 266.804 29 21 57
237.178 238.706 274.415 21 27 51
230.96 282.844 301.586 49 63 94
228.769 299.993 304.253 67 78 103
228.286 304.045 303.669 58 78 108
220.794 369.226 284.476 28 44 82
219.816 376.606 286.839 183 212 210
236.19 269.765 210.008 48 56 91
237.623 251.43 239.09 59 69 100
237.498 250.899 245.776 49 63 95
237.487 250.173 249.307 47 54 88
237.198 251.66 253.01 29 42 75
238.142 242.103 261.242 15 40 68
238.261 237.183 278.353 15 18 47
236.234 252.314 284.004 31 40 67
235.957 254.526 284.174 31 37 67
233.496 271.887 295.379 57 60 91
232.755 276.878 299.8 56 60 93
231.397 287.39 301.955 49 64 92
229.556 301.956 303.526 67 77 101
220.881 376.357 285.942 189 171 158
238.218 258.685 222.178 49 71 96
237.371 251.693 282.181 20 22 49
235.818 264.772 280.05 29 30 62
235.53 266.258 283.752 36 39 72
234.808 269.975 293.008 47 60 89
233.747 277.001 299.828 53 59 93
231.936 291.017 302.702 51 62 90
231.761 292.309 303.25 56 64 92
239.107 259.728 221.828 53 72 98
239.579 254.949 225.945 59 70 96
239.568 254.224 229.476 62 67 98
239.543 250.047 248.438 48 52 87
239.879 244.011 262.772 11 25 51
237.91 255.32 282.928 21 29 56
236.738 265.266 281.004 26 30 64
236.222 267.142 291.014 46 51 85
232.826 292.06 302.353 50 61 91
239.874 262.965 216.267 62 80 100
239.802 263.336 217.192 57 79 103
239.966 261.319 220.176 55 75 102
240.599 251.797 239.174 53 62 95
240.691 250.151 243.084 51 63 93
240.618 250.523 244.009 51 59 92
240.041 253.496 251.414 33 38 75
240.457 245.089 273.189 8 12 38
239.222 253.407 280.557 10 7 37
238.008 263.176 280.861 31 26 58
237.369 267.246 285.66 41 49 77
237.431 266.149 288.266 40 51 81
236.72 270.591 293.99 46 55 88
235.875 276.502 298.033 47 59 90
234.928 283.333 301.699 56 63 92
240.98 252.716 257.202 20 30 63
240.969 251.99 260.734 7 11 42
238.723 265.51 281.06 30 39 67
238.506 266.625 283.837 32 45 75
238.495 265.9 287.369 40 49 79
237.537 272.005 294.566 50 53 87
236.651 277.739 300.838 51 58 89
227.132 358.051 287.297 2 16 52
226.832 358.812 294.531 205 209 200
241.817 263.033 218.552 56 79 104
241.95 261.564 220.233 57 75 105
242.647 253.67 229.939 56 65 97
242.591 250.042 247.598 45 44 83
242.314 252.254 247.768 43 44 82
242.169 252.997 249.619 37 41 78
241.953 254.112 252.396 31 39 69
241.95 251.387 264.294 4 4 34
242.072 249.192 269.507 4 8 35
241.042 255.669 277.63 10 20 53
239.281 267.863 286.642 37 48 80
236.563 286.162 302.852 53 63 92
242.881 262.783 217.655 68 77 101
243.609 254.341 228.664 55 67 97
243.761 251.598 235.179 51 56 92
243.595 250.89 244.094 42 57 86
243.45 251.633 245.945 42 48 84
243.034 249.863 268.232 7 18 43
241.962 256.163 278.583 18 39 67
240.779 265.384 280.191 25 45 73
239.449 272.622 295.548 47 51 85
238.996 276.126 296.267 45 56 85
237.349 288.125 302.125 52 64 91
235.858 300.106 302.6 54 74 96
235.786 300.478 303.526 65 77 98
228.888 358.685 293.662 191 179 182
243.934 261.808 220.289 57 75 101
244.601 254.464 228.692 58 68 96
244.153 253.242 249.676 37 44 75
243.865 254.729 253.378 33 43 72
243.873 252.729 261.745 19 29 62
243.82 251.826 267.505 10 23 51
243.737 251.472 271.962 11 19 44
241.554 266.621 282.996 32 49 77
241.121 268.851 288.55 41 51 83
240.73 271.257 291.874 47 52 86
240.163 274.956 295.747 46 53 84
237.786 292.671 302.494 53 64 91
237.714 293.043 303.42 53 69 92
229.975 359.887 285.701 82 107 127
245.673 252.214 236.161 50 59 89
244.929 254.479 252.481 38 43 74
244.701 254.869 258.789 35 44 74
244.721 253.594 263.624 19 36 62
244.307 254.55 274.012 13 27 52
241.505 272.495 294.679 43 52 83
241.083 275.45 296.701 43 51 84
239.961 283.573 300.915 48 58 87
238.881 291.873 302.9 52 64 91
238.706 293.165 303.448 53 66 92
238.223 297.218 302.863 57 69 93
231.161 357.443 290.016 175 207 196
246.452 256.177 227.068 57 70 94
246.685 251.062 241.025 41 56 85
245.777 255.345 254.36 38 48 76
245.838 254.248 256.966 45 50 78
245.652 254.814 261.046 25 45 74
245.713 253.717 263.652 20 41 70
245.052 256.336 275.514 19 43 66
242.219 274.829 294.878 39 51 82
241.972 276.493 296.352 36 50 83
240.398 288.12 301.284 49 62 88
238.762 300.845 303.61 61 75 97
231.937 358.68 292.821 195 199 207
247.73 252.087 235.292 44 56 89
246.985 254.352 251.612 26 44 76
246.705 253.839 263.68 21 48 73
245.9 257.201 277.393 31 51 76
244.747 265.873 280.304 34 52 77
243.356 274.208 293.055 32 53 81
241.668 286.03 301.142 44 59 85
239.754 300.967 303.639 63 74 97
247.4 267.625 214.983 63 77 94
247.761 255.59 254.417 41 53 76
247.678 255.236 258.874 39 55 82
247.541 253.979 269.092 15 39 67
246.089 263.412 279.236 34 52 78
245.595 266.739 282.184 27 51 76
243.329 281.534 297.675 41 53 81
242.382 288.365 301.341 47 61 86
249.642 252.704 236.274 41 55 84
249.114 253.854 249.817 27 45 75
248.67 255.358 258.902 40 50 79
248.761 253.712 262.811 37 50 78
248.492 253.924 271.348 18 35 61
247.606 259.658 277.621 39 55 81
246.298 268.348 285.914 33 50 77
249.312 268.241 215.965 63 78 98
249.373 267.144 218.571 57 73 99
250.409 255.941 230.713 52 60 87
250.645 253.552 232.771 49 58 86
249.673 256.206 255.399 37 49 68
249.806 254.737 257.079 36 48 71
249.742 253.109 266.371 34 53 85
249.526 254.224 269.148 25 45 78
249.34 254.79 273.228 27 39 72
247.351 267.373 288.549 33 54 77
245.313 281.778 297.731 37 53 78
245.066 283.442 299.205 35 51 79
242.731 301.334 303.723 57 74 97
251.206 258.63 226.454 55 64 91
250.882 255.214 252.65 28 44 67
250.879 252.488 264.548 50 52 82
250.332 254.912 273.256 33 45 75
250.187 255.656 275.107 37 50 77
250.043 256.399 276.958 49 53 79
249.24 262.487 278.773 29 54 80
246.305 281.901 297.76 34 51 77
245.183 290.024 301.973 51 57 86
243.65 301.828 304.677 54 74 96
252.557 254.168 233.753 47 51 83
252.596 251.62 243.423 31 45 74
252.09 254.221 249.902 30 44 69
248.986 270.201 289.701 34 50 75
247.575 279.811 297.617 32 50 80
244.57 302.322 305.631 58 80 86
252.955 261.264 224.453 49 65 92
253.588 251.742 243.451 29 44 73
252.71 255.476 258.09 28 39 59
252.863 252.733 264.605 25 52 75
252.532 254.042 270.536 30 45 75
251.224 262.731 278.83 26 55 74
249.061 276.606 294.698 36 47 77
248.187 283.066 297.439 31 50 77
247.415 288.605 300.556 44 51 82
253.783 263.404 221.497 53 70 97
254.316 257.528 228.22 52 58 87
254.408 255.882 232.129 46 51 83
253.855 252.855 264.633 22 49 68
249.034 283.931 299.318 40 50 79
254.611 265.543 218.542 50 66 98
255.308 257.65 228.248 51 58 86
254.633 256.818 255.54 16 22 44
254.58 255.915 261.3 25 39 60
254.578 253.189 273.199 28 18 55
246.899 308.759 302.148 125 57 111
255.398 267.506 217.815 50 65 99
256.297 255.047 240.175 27 40 71
255.77 256.197 253.717 14 18 38
254.129 263.47 279.84 15 18 38
252.357 274.938 292.384 23 48 77
250.741 286.388 299.545 38 49 80
248.622 303.165 301.287 47 60 90
257.148 258.638 230.156 39 52 81
257.281 257.169 231.836 38 51 80
257.209 257.541 232.762 38 49 78
257.373 255.523 235.745 33 46 75
257.362 254.798 239.277 28 43 69
257.289 255.169 240.203 22 41 69
257.309 253.895 245.038 29 41 67
255.337 262.478 277.092 7 4 36
253.771 272.105 290.391 30 34 59
252.752 279.308 294.982 35 48 77
252.155 283.555 297.552 34 49 79
250.344 297.571 300.426 42 54 85
257.248 269.22 216.191 80 88 118
258.079 259.858 227.578 37 55 82
258.023 256.229 245.236 24 41 66
257.734 257.716 248.939 13 27 50
251.161 298.986 301.002 48 54 86
251.089 299.357 301.928 53 55 87
258.241 269.342 216.219 83 100 123
258.579 266.033 218.655 56 66 108
258.671 264.387 222.564 54 60 91
258.446 257.325 261.036 10 8 44
258.393 256.422 266.796 14 8 54
258.249 257.165 268.647 16 3 54
256.127 271.217 282.287 8 12 40
255.839 272.704 285.99 9 12 40
255.405 274.933 291.543 23 43 64
255.086 276.969 293.942 31 50 74
253.131 291.728 298.668 42 50 80
259.591 264.881 223.518 51 54 88
259.438 257.447 261.064 15 17 60
258.519 261.004 277.931 41 48 94
256.583 274.49 287.492 14 26 46
254.926 285.763 296.881 34 49 81
253.321 297.938 300.511 48 51 80
260.358 268.118 217.956 74 83 112
260.716 263.534 225.227 47 53 85
260.88 261.517 228.211 42 50 80
260.972 259.871 232.12 35 46 75
261.063 258.225 236.029 36 46 69
260.464 259.747 250.497 4 12 36
259.944 258.897 272.406 57 47 83
259.511 261.126 277.96 50 47 87
259.233 263.339 278.13 62 44 85
256.443 282.009 295.266 37 50 80
254.138 299.353 301.087 51 56 82
261.442 266.595 221.894 51 56 92
261.831 261.462 230.467 36 47 75
261.892 260.365 233.074 35 46 72
262.025 258.896 234.754 36 46 70
262.105 256.524 242.195 25 42 71
262.033 256.896 243.121 23 41 71
261.672 258.754 247.749 11 29 56
261.27 260.435 254.605 18 26 54
261.009 258.647 271.509 59 45 83
260.431 261.621 278.913 49 41 80
258.784 273.619 284.771 12 34 64
258.712 273.991 285.697 11 33 62
256.457 289.512 297.656 39 48 80
253.844 309.616 302.346 132 121 120
262.475 266.894 219.693 53 84 108
262.506 266.345 220.997 42 60 98
262.628 264.151 226.209 42 51 82
262.953 257.39 244.075 26 42 71
262.809 258.133 245.926 18 39 65
262.737 258.505 246.851 16 36 61
262.664 258.876 247.777 14 31 57
262.303 260.735 252.405 14 19 52
262.414 257.814 261.149 50 35 75
262.342 258.186 262.074 41 33 75
262.012 259.495 268.005 44 31 83
262.001 258.77 271.537 48 33 73
261.845 258.787 276.92 34 29 76
261.351 262.115 279.867 33 31 73
259.066 278.184 290.524 20 37 60
257.171 291.846 297.855 46 50 79
263.426 266.839 221.95 46 55 83
263.579 264.096 228.466 38 47 78
263.884 258.61 241.497 27 43 76
263.254 260.68 254.662 27 41 71
263.148 258.875 266.183 35 30 70
263.054 257.795 274.172 34 26 63
259.985 278.678 291.478 24 40 61
259.461 282.553 293.122 27 46 69
259.388 282.925 294.047 31 51 73
259.038 285.509 295.143 36 50 77
257.639 295.844 299.528 29 48 78
264.796 261.104 234.084 41 48 71
264.876 258.732 241.525 26 44 76
264.379 259.333 256.371 34 45 76
264.307 259.705 257.296 31 45 79
264.326 258.431 262.131 29 25 68
261.05 278.428 290.58 13 38 56
260.7 281.012 291.676 21 43 63
260.03 285.631 295.172 39 44 74
259.681 288.215 296.268 47 46 75
259.156 292.091 297.912 41 46 77
257.417 305.736 299.861 40 50 78
256.965 309.24 300.579 103 91 104
265.654 262.695 232.432 34 46 71
265.291 261.827 248.958 20 36 62
265.146 262.571 250.809 24 37 67
265.238 260.925 254.718 31 45 76
265.371 259.456 256.399 31 47 78
265.121 258.394 269.771 19 14 46
263.874 265.986 280.671 30 36 63
262.753 274.109 284.885 24 46 73
259.418 297.929 298.829 27 47 77
258.307 306.778 299.511 39 48 78
266.166 269.596 219.977 46 85 107
266.33 267.578 222.961 48 49 84
266.391 266.481 225.567 41 50 81
266.363 259.578 256.427 28 47 76
266.102 257.79 273.331 14 12 42
265.958 258.534 275.182 14 12 39
264.867 266.108 280.699 30 36 60
263.456 275.718 288.615 26 39 62
258.816 310.953 298.955 80 55 76
258.743 311.325 299.881 121 99 102
258.671 311.697 300.806 119 126 129
267.494 263.683 234.339 28 44 73
267.141 263.541 247.334 21 39 65
267.375 258.426 261.29 24 32 65
267.044 259.736 267.221 11 12 41
264.809 273.982 284.015 33 44 77
264.737 274.353 284.941 30 46 73
262.729 288.21 295.427 31 45 69
262.657 288.582 296.352 30 46 70
259.736 311.447 299.909 119 98 101
267.934 270.955 222.81 43 50 80
268.292 266.371 230.081 37 44 73
268.25 266.194 232.309 30 44 72
268.311 265.097 234.916 24 44 72
268.134 263.663 247.362 23 39 65
268.256 261.469 252.574 38 47 73
267.603 262.088 272.803 11 10 36
265.729 274.476 284.969 29 44 71
264.957 280.015 288.087 19 37 62
263.866 287.59 293.604 27 44 65
262.816 295.341 296.892 32 47 71
269.198 263.414 246.465 19 41 63
269.103 262.334 254.454 35 47 77
268.956 260.352 268.203 5 12 39
268.42 263.502 273.379 7 11 38
265.774 281.429 288.663 16 37 59
264.261 291.959 296.202 24 45 70
263.15 300.808 296.884 32 46 73
262.07 309.108 298.869 42 50 79
269.579 274.509 220.431 74 67 99
270.171 264.811 241.658 14 39 63
270.19 263.536 246.493 18 38 62
269.951 263.2 256.333 26 44 74
269.846 261.395 267.854 5 15 44
269.629 262.509 270.631 5 16 42
269.557 262.881 271.556 3 15 46
269.413 263.624 273.407 4 19 47
267.713 274.721 285.026 26 42 67
265.819 288.383 292.357 25 41 63
265.747 288.755 293.283 32 41 64
265.078 293.374 296.778 24 45 69
264.595 297.426 296.194 27 46 69
270.632 273.534 223.066 44 41 81
271.196 267.11 231.091 26 42 65
271.235 264.561 240.761 16 39 63
271.088 262.579 254.51 28 45 70
270.477 263.375 272.51 9 21 55
268.922 273.728 282.277 27 41 69
272.166 265.781 238.183 23 38 63
272.155 265.055 241.715 12 37 60
271.955 262.17 261.224 21 34 65
271.336 264.966 270.858 16 40 67
270.902 267.196 276.411 16 40 68
270.758 267.939 278.262 18 38 68
269.986 273.479 281.38 25 41 70
269.347 277.549 286.178 24 40 67
267.598 290.468 291.659 25 42 65
267.001 294.716 294.229 20 44 66
265.921 303.016 296.214 25 44 72
248.848 449.605 260.874 77 60 98
272.011 280.027 217.325 107 116 122
272.769 271.036 229.638 31 39 65
273.011 263.921 251.961 25 46 64
272.802 263.036 263.104 21 34 69
272.4 264.717 269.96 20 44 78
272.255 265.46 271.812 25 46 78
271.225 271.938 279.935 26 36 75
270.978 273.601 281.408 25 42 72
270.906 273.973 282.334 29 41 71
270.834 274.344 283.259 33 41 73
269.537 283.759 288.021 21 42 67
269.259 285.972 288.192 19 42 65
268.415 291.882 292.235 32 42 67
249.626 453.568 251.78 37 2 73
249.687 452.471 254.387 29 1 51
273.822 270.061 232.272 33 36 62
273.883 268.964 234.878 22 35 62
274.067 265.672 242.697 15 36 57
274.075 263.672 251.063 25 43 64
273.992 263.318 255.521 26 44 66
272.567 269.476 278.867 35 43 80
271.97 273.723 281.437 26 44 76
269.932 288.129 290.619 21 43 67
269.582 290.713 291.716 27 43 67
268.255 300.677 295.174 21 40 68
250.382 456.08 249.75 2 1 48
273.79 282.112 216.627 115 117 123
274.906 268.537 236.21 20 34 61
274.934 265.263 249.411 22 40 65
274.912 263.812 256.474 20 42 67
274.312 265.333 270.943 33 48 83
273.992 267.369 273.342 39 47 84
274.023 266.82 274.645 37 47 83
272.612 276.43 282.561 36 49 79
272.54 276.801 283.486 33 49 79
271.171 286.588 289.174 19 42 69
269.597 298.215 294.106 20 41 68
268.619 305.595 296.469 35 45 73
250.78 463.175 240.45 5 1 47
250.708 463.547 241.376 9 1 42
252.471 443.902 264.527 26 2 41
253.138 436.558 272.93 72 51 103
275.715 271.952 228.419 34 34 68
275.734 270.677 233.254 22 34 58
275.868 269.208 234.935 22 34 58
275.834 267.031 245.53 5 38 60
275.831 264.306 257.428 13 45 71
275.448 264.713 269.12 26 51 80
274.026 273.597 280.568 34 53 82
276.429 274.286 228.618 33 35 67
276.765 268.251 242.952 14 33 59
276.846 265.879 250.393 21 42 66
276.843 263.154 262.291 33 50 80
276.368 265.207 270.074 26 49 80
273.855 281.665 287.038 28 48 79
271.797 297.345 291.386 23 42 69
271.447 299.929 292.482 15 41 68
270.428 307.132 297.074 42 47 78
253.881 449.846 260.089 7 1 37
277.083 277.718 226.211 42 34 73
277.735 266.922 250.044 19 42 66
276.999 267.187 274.73 37 47 81
276.638 269.045 279.357 41 54 84
276.083 273.47 279.699 49 54 83
275.064 280.672 284.29 34 55 84
274.117 287.504 287.956 22 47 73
273.767 290.087 289.052 19 48 71
254.884 450.694 256.586 9 22 77
256.186 436.553 272.089 34 8 62
277.705 281.699 222.5 64 100 112
278.433 273.257 233.509 21 33 59
278.666 268.142 247.466 27 41 64
278.713 263.593 265.502 40 47 81
278.569 264.336 267.353 34 45 78
273.154 302.386 292.709 16 40 64
272.937 303.501 295.486 30 44 69
256.137 452.604 239.711 41 41 85
255.426 457.046 245.434 19 14 86
255.282 457.789 247.286 43 20 81
255.948 450.444 255.689 16 30 83
255.937 449.719 259.22 19 36 91
255.865 450.09 260.146 13 16 94
256.881 440.162 267.453 9 2 52
259.242 416.27 288.034 118 89 122
279.322 274.299 233.16 25 33 58
279.597 269.361 244.888 19 37 59
279.739 265.892 254.935 30 50 75
279.778 263.344 264.605 37 48 79
279.489 264.83 268.307 26 39 75
279.344 265.574 270.158 27 42 74
279.272 265.945 271.084 28 40 74
279.128 266.689 272.935 31 43 77
279.044 266.335 277.392 39 48 73
277.223 279.625 283.798 30 58 84
260.889 418.499 255.936 35 21 85
280.17 275.165 235.04 19 32 54
280.67 267.112 252.357 29 46 71
280.72 265.289 258.495 34 51 79
280.625 264.209 266.484 29 45 75
280.553 264.581 267.41 27 39 75
280.481 264.953 268.335 26 41 73
280.325 264.97 273.718 28 42 74
277.69 283.623 285.471 31 54 87
276.435 293.215 288.004 23 44 72
276.363 293.587 288.93 22 41 69
275.632 299.303 289.819 24 39 63
261.809 418.993 256.89 28 20 84
257.338 457.662 246.417 19 20 91
261.301 418.869 275.267 19 15 103
260.818 422.921 274.682 8 9 77
281.459 271.801 239.732 19 31 54
281.479 270.526 244.567 21 33 58
281.57 268.88 248.476 24 42 65
281.631 267.783 251.082 29 44 68
281.329 265.818 270.215 27 41 69
280.432 270.827 280.018 33 44 71
279.279 279.498 282.929 31 54 81
275.616 307.354 290.907 10 36 60
262.893 417.469 260.827 23 21 83
262.293 418.991 275.295 28 26 101
262.148 419.734 277.146 5 7 63
262.446 416.248 281.811 29 12 63
281.724 280.365 228.751 19 32 63
282.307 272.666 241.612 21 30 54
282.662 265.357 260.78 31 48 76
282.465 265.197 268.392 23 40 67
282.393 265.569 269.317 25 40 67
279.324 286.452 286.623 30 48 76
277.411 301.389 289.12 20 38 62
262.352 429.396 263.559 8 3 38
263.788 413.786 280.743 4 3 63
263.476 413.821 291.509 115 124 129
282.602 280.682 231.934 14 30 57
283.093 274.629 240.885 17 30 53
283.646 267.479 252.442 47 45 70
282.879 268.293 275.825 17 30 56
282.56 270.328 278.224 23 33 57
281.263 279.743 282.986 36 43 74
281.119 280.486 284.837 31 49 76
280.666 283.99 285.555 28 48 74
279.761 290.999 286.993 28 44 66
271.711 357.878 280.04 20 4 61
271.639 358.249 280.965 17 4 52
264.785 419.36 256.974 14 4 54
264.891 410.988 289.515 51 21 107
284.16 266.929 272.151 22 30 57
284.088 267.3 273.076 19 28 58
277.946 313.792 287.423 13 40 64
266.316 408.881 283.99 12 7 62
283.775 289.015 225.438 32 37 72
283.836 287.917 228.044 17 34 61
284.072 285.528 230.103 15 32 59
284.575 280.201 235.522 15 31 53
285.475 267.741 257.881 29 45 67
284.02 274.448 279.924 18 34 56
279.01 313.542 286.526 12 35 63
267.15 416.472 257.238 11 2 36
267.416 413.534 260.599 9 7 43
267.677 405.145 287.757 18 14 75
276.231 367.52 185.766 36 14 97
286.222 272.253 247.485 21 34 56
286.475 265.864 266.276 22 28 51
285.928 268.288 274.984 13 20 47
282.532 293.206 286.322 17 37 58
281.318 302.975 286.627 14 38 58
279.93 314.036 287.48 14 36 63
279.785 314.779 289.331 19 36 66
268.275 415.125 258.947 2 2 32
268.333 411.303 273.451 11 9 36
268.322 410.577 276.983 23 13 81
278.328 363.52 164.847 54 44 131
277.592 363.785 189.533 21 10 84
285.246 293.861 223.607 13 42 75
287.173 272.198 249.742 27 34 56
287.47 268.712 254.406 26 39 59
287.209 266.924 271.31 17 18 47
287.137 267.296 272.235 14 18 46
286.745 269.703 275.56 12 17 42
286.395 272.286 276.656 19 18 42
283.391 294.798 284.67 18 30 56
275.063 363.889 277.888 22 10 54
288.062 273.241 249.393 22 31 50
288.245 269.949 257.211 19 33 54
288.379 268.48 258.892 20 31 53
288.234 269.223 260.743 16 28 49
287.459 272.037 275.759 12 16 37
286.429 278.514 283.882 16 22 49
284.66 292.708 284.528 17 26 53
283.272 303.769 285.38 18 33 56
281.925 315.007 284.004 18 32 59
281.636 316.493 287.707 21 35 65
271.173 406.362 265.933 10 9 57
280.215 359.959 184.791 31 26 108
288.315 281.08 241.943 12 24 53
288.818 275.753 247.363 15 27 49
289.154 269.717 261.697 18 19 43
288.957 269.558 269.308 10 16 39
288.74 270.673 272.085 9 12 41
288.132 274.195 278.186 14 14 38
287.566 277.893 282.059 15 16 41
285.272 295.963 284.349 17 26 53
283.678 308.864 284.447 17 31 57
272.204 403.936 275.631 9 2 44
272.132 404.307 276.556 10 4 52
272.562 399.352 282.901 30 9 80
272.695 397.883 284.582 20 9 82
273.084 392.75 293.155 15 7 69
272.876 391.865 304.299 127 118 129
281.788 359.834 165.516 48 34 129
281.402 357.515 189.106 22 15 96
281.257 358.258 190.957 19 8 86
290.138 271.84 253.358 15 26 48
288.352 279.856 281.333 12 15 36
286.717 292.581 283.659 13 19 47
273.721 400.182 274.015 9 5 72
274.651 387.174 297.677 24 14 87
273.796 392.359 305.253 124 119 129
282.669 362.876 156.8 104 102 127
282.863 360.31 161.087 55 33 126
283.088 357.195 166.677 42 25 125
282.671 355.425 188.963 21 21 99
289.653 287.395 238.432 14 26 54
290.083 282.439 244.777 13 26 48
290.994 270.705 263.604 7 17 34
290.922 271.077 264.53 5 17 36
290.849 271.449 265.456 4 17 38
290.272 274.422 272.86 10 14 34
286.917 299.517 281.97 12 20 49
286.187 305.233 282.859 21 27 52
274.838 400.836 267.357 5 9 43
274.557 400.322 279.426 7 7 61
275.09 394.447 286.148 11 7 81
275.643 387.296 297.706 23 14 87
275.415 387.686 304.014 56 23 113
284.061 358.592 161.87 54 20 117
289.917 295.959 227.451 20 32 69
289.906 295.233 230.982 16 28 58
290.645 287.517 238.46 14 26 54
291.578 277.235 250.224 11 22 46
281.689 351.228 277.006 25 48 79
281.134 355.652 277.347 30 49 86
277.515 386.411 271.197 2 4 42
276.094 395.294 282.645 10 10 70
276.227 393.826 284.326 12 7 78
276.685 385.596 303.872 51 25 107
276.13 390.02 304.213 50 28 113
285.533 351.936 174.381 43 25 117
284.85 353.104 193.307 16 7 83
284.706 353.847 195.158 12 8 68
284.428 356.059 195.329 14 1 56
284.284 356.802 197.18 10 43 68
290.826 295.727 231.936 14 30 56
292.364 279.197 249.497 9 20 46
292.661 275.711 254.162 10 18 40
292.556 273.906 265.683 4 14 37
292.412 274.649 267.534 4 12 34
286.794 317.264 280.236 14 27 51
286.722 317.636 281.162 13 28 52
285.961 323.901 280.748 12 28 57
282.198 355.403 276.45 23 50 82
279.782 375.667 273.527 20 19 59
278.508 386.533 271.225 4 3 43
277.797 390.975 276.949 17 10 74
277.702 389.895 284.938 12 8 71
277.722 388.621 289.773 10 7 70
277.65 388.992 290.699 9 7 62
286.947 349.103 172.388 41 28 112
286.936 348.377 175.92 42 27 114
285.203 357.296 198.134 21 49 90
291.551 298.788 228.603 11 30 64
293.151 281.16 248.771 11 22 47
293.284 279.691 250.451 14 22 44
293.395 276.771 259.195 8 15 36
292.807 279.019 270.132 5 10 35
292.373 281.248 275.685 5 14 33
289.174 306.326 279.412 6 23 49
287.025 323.652 279.851 13 30 55
279.797 383.169 275.918 7 8 67
287.048 359.685 158.423 67 91 131
288.012 348.854 171.491 36 24 105
288.564 341.704 183.048 37 25 115
289.606 325.775 215.455 16 44 75
294.132 280.557 252.331 11 18 39
294.171 278.008 262 4 16 36
288.922 316.766 278.442 6 22 52
288.367 321.19 278.783 7 27 53
284.738 351.223 276.165 18 49 78
284.46 353.435 276.335 20 49 80
280.572 384.406 278.723 8 8 72
280.12 387.91 279.441 11 3 55
279.972 385.928 293.191 2 3 60
280.639 378.583 301.594 35 17 91
280.145 381.91 304.541 32 21 100
279.795 384.494 305.637 43 25 100
279.445 387.078 306.733 59 23 103
279.3 387.821 308.584 87 94 125
288.482 355.577 161.265 46 42 132
288.748 352.639 164.626 42 27 124
288.881 351.17 166.307 35 20 121
287.715 356.391 184.648 30 12 97
288.557 347.754 192.503 29 14 96
295.052 281.051 253.285 7 20 41
294.771 280.538 265.353 4 11 31
289.431 320.941 277.886 7 24 53
289.081 323.525 278.982 10 28 55
288.084 332.179 276.51 13 30 56
282.831 375.662 272.686 18 47 66
282.347 379.715 272.102 23 9 44
281.484 386.9 271.31 3 5 39
281.986 381.573 276.729 9 9 72
281.914 381.944 277.655 11 12 74
281.253 384.563 289.517 10 7 80
289.26 349.363 196.233 9 8 80
295.447 285.421 255.883 5 14 39
295.611 283.403 258.866 4 13 39
295.527 283.049 263.324 3 13 33
295.311 284.164 266.1 3 12 34
294.6 288.606 271.824 5 11 39
294.075 292.482 273.468 9 14 38
291.431 313.135 276.854 7 18 49
291.051 316.267 276.647 6 21 50
290.979 316.639 277.573 7 21 51
282.69 383.182 280.46 8 5 54
289.758 362.99 155.147 68 48 132
291.082 350.3 163.586 52 41 130
290.999 349.946 168.044 33 25 123
291.757 340.956 180.356 33 13 97
295.231 300.763 232.419 10 21 56
295.672 296.534 235.232 10 21 54
295.284 291.489 270.72 7 12 44
294.934 294.073 271.816 8 12 41
293.709 303.116 275.652 8 19 45
293.257 306.621 276.371 8 20 45
290.624 327.999 276.225 10 21 55
286.542 361.536 274.326 33 51 81
282.76 384.135 309.254 46 26 110
292.474 346.016 168.657 39 24 126
292.283 341.131 196.533 22 12 94
296.437 297.045 241.569 11 18 47
296.948 289.718 255.355 10 14 41
297.287 286.409 257.79 10 14 42
296.937 288.993 258.886 9 16 35
294.568 304.708 274 8 19 44
285.224 373.551 303.972 24 15 91
283.752 384.258 309.282 49 24 106
294.274 335.325 187.135 26 10 96
293.769 337.926 193.614 16 12 94
294.197 330.245 211.857 37 51 87
294.391 327.679 216.144 28 44 75
297.296 298.637 239.916 12 17 49
297.807 291.31 253.702 6 16 41
296.188 300.034 272.762 10 17 40
293.411 322.156 274.467 7 24 49
286.005 380.239 282.98 2 1 41
285.827 378.806 295.427 9 3 41
295.105 340.19 172.281 42 25 126
295.111 335.465 192.546 21 14 104
294.256 340.65 200.121 14 10 83
294.306 338.827 206.259 18 17 50
295.383 327.801 216.172 27 46 77
297.713 304.458 235.451 7 18 51
298.354 292.936 262.816 4 15 38
297.335 300.139 267.407 11 14 42
296.316 307.342 271.998 11 14 41
295.514 313.43 273.813 9 20 45
288.552 370.009 273.241 22 40 62
288.046 372.61 279.72 9 4 71
287.624 375.566 281.742 7 4 56
287.252 376.698 289.902 19 4 72
287.291 374.15 299.571 17 13 80
287.763 369.371 303.688 23 18 88
287.547 370.486 306.464 25 14 94
296.281 337.021 180.128 18 17 119
296.414 335.552 181.809 19 16 112
296.464 333.729 187.947 26 3 96
296.453 333.003 191.478 29 13 98
296.381 333.375 192.404 26 13 102
295.464 339.657 197.373 29 11 81
295.248 340.772 200.15 13 10 84
296.375 327.923 216.201 29 48 79
296.303 328.295 217.126 23 44 78
299.544 293.218 255.232 5 16 38
298.677 297.677 266.339 8 14 42
293.462 338.612 272.185 13 36 61
292.352 347.461 272.867 18 44 72
288.916 374.927 274.536 2 6 56
288.472 376.431 283.621 5 1 30
288.194 378.643 283.792 7 2 40
288.744 368.768 307.248 26 15 94
288.394 371.352 308.344 19 12 95
287.489 378.36 309.781 28 12 93
297.539 334.205 183.518 20 17 111
297.6 333.108 186.124 17 11 105
297.517 332.754 190.581 24 10 94
297.65 331.285 192.262 25 11 92
297.434 332.4 195.038 25 13 97
296.806 337.196 196.305 23 15 96
296.734 337.568 197.231 26 13 90
296.301 339.797 202.784 7 6 75
296.29 339.072 206.316 12 19 50
297.028 331.355 213.793 31 48 78
299.972 299.765 247.235 13 15 42
300.166 297.198 251.522 3 17 42
300.114 296.296 257.282 9 16 37
299.969 297.039 259.133 4 14 36
298.239 308.684 269.449 2 15 41
298.167 309.055 270.374 4 17 42
294.454 338.734 272.214 14 37 62
293.035 350.344 271.763 18 45 72
290.32 371.368 276.075 3 5 58
289.214 375.492 297.022 10 9 73
297.529 347.707 160.809 40 23 84
298.904 333.195 175.386 36 25 115
298.737 332.487 184.301 29 20 115
297.787 336.593 199.865 21 9 88
297.715 336.964 200.791 16 8 86
293.266 356.731 271.377 25 50 75
293.194 357.103 272.303 28 49 77
290.662 374.835 284.433 6 2 44
290.351 374.871 295.199 5 4 51
290.484 373.402 296.879 9 7 65
291.284 364.588 306.963 23 16 95
290.234 372.34 310.251 21 16 89
284.858 418.017 301.216 48 33 95
284.786 418.389 302.141 48 49 94
299.565 344.804 137.284 110 101 93
297.752 356.095 152.056 78 93 98
298.727 345.989 161.592 38 21 73
299.829 328.963 196.605 21 10 91
301.454 305.336 241.872 6 14 45
301.648 302.77 246.159 5 15 42
301.504 303.513 248.01 4 15 42
301.501 300.788 259.908 4 14 41
300.934 304.487 263.781 4 15 36
296.788 336.395 271.174 14 34 61
295.955 343.032 271.686 20 41 69
294.186 357.225 272.331 24 47 76
293.692 360.552 275.279 8 26 55
292.354 369.79 282.269 7 2 57
291.648 369.506 308.258 25 14 89
291.226 372.462 310.28 22 13 88
301.39 338.29 136.8 82 55 66
301.093 331.599 176.198 36 23 104
300.904 329.44 192.176 16 12 104
301.027 327.245 197.388 15 7 88
299.472 337.598 207.156 11 6 60
299.533 336.501 209.762 19 27 54
300.496 325.67 222.829 19 40 71
300.763 322.732 226.19 14 33 63
300.752 322.006 229.722 9 26 52
302.312 306.928 240.22 5 17 47
302.432 302.007 257.331 6 13 43
302.01 304.963 259.352 6 14 41
301.576 307.193 264.906 6 13 36
300.424 315.864 267.816 5 16 45
295.806 352.551 271.093 29 46 73
294.406 362.887 275.477 3 10 50
293.057 371.399 286 8 3 54
293.118 370.302 288.606 9 4 69
293.179 369.204 291.212 12 9 82
292.674 371.806 297.691 30 8 76
293.629 362.975 302.392 24 13 81
293.587 362.798 304.62 17 14 87
293.515 363.169 305.546 15 14 88
293.371 363.913 307.397 22 14 89
288.478 405.537 298.946 26 12 92
288.467 404.812 302.478 28 22 95
286.975 416.793 302.953 63 51 81
285.759 423.836 315.156 100 97 103
285.687 424.208 316.081 101 95 104
300.333 352.092 149.543 83 70 77
300.261 352.464 150.469 91 77 80
301.05 342.924 164.084 32 32 54
302.607 325.12 186.48 37 17 112
302.052 329.545 186.821 36 24 116
301.98 329.916 187.747 39 21 114
302.041 328.819 190.353 53 18 111
301.935 327.014 201.874 19 11 91
301.163 332.553 204.992 13 5 90
301.744 322.129 229.75 14 24 56
302.055 311.916 263.046 4 13 38
295.171 363.398 281.814 10 5 69
294.893 365.611 281.985 8 5 64
294.327 369.309 285.857 9 2 51
294.654 365.274 291.825 10 6 75
293.766 368.282 309.995 26 14 85
289.592 403.465 304.186 29 22 83
289.037 407.89 304.527 49 35 75
288.965 408.261 305.453 62 44 74
287.473 420.242 305.928 103 87 94
286.607 424.702 317.035 103 93 100
303.58 336.694 137.612 57 58 63
302.242 345.932 144.603 69 70 77
301.47 351.471 147.72 77 71 78
301.375 350.392 155.709 78 78 85
301.775 345.985 160.751 57 67 89
302.883 334.41 171.968 22 12 45
303.083 327.118 196.519 14 13 103
303.216 325.649 198.2 11 10 98
302.855 327.508 202.828 16 6 89
301.517 336.746 209.818 12 16 43
302.869 320.782 231.459 11 22 57
303.647 310.517 248.607 5 13 40
303.78 309.048 250.287 7 14 40
303.913 307.579 251.968 5 13 41
298.243 349.292 270.431 15 44 72
295.707 364.299 294.459 14 6 70
295.563 365.042 296.31 2 2 57
288.671 418.524 306.711 92 87 88
288.321 421.108 307.807 93 90 91
287.66 423.727 319.669 96 97 98
286.96 428.895 321.862 104 106 107
306.219 324.817 131.782 104 103 110
306.147 325.189 132.708 101 94 106
305.725 328.145 134.73 94 90 92
303.789 341.63 144.29 70 68 72
303.511 343.842 144.46 70 68 70
302.973 344.266 161.535 63 84 82
304.481 328.285 177.793 21 13 57
304.125 325.418 202.686 9 5 92
302.764 333.204 216.74 47 46 73
303.461 325.311 226.446 14 36 66
303.789 321.276 232.413 9 25 57
304.056 318.338 235.774 10 22 52
304.217 313.595 250.656 4 14 40
303.928 315.081 254.359 9 13 40
301.817 329.859 264.467 9 22 48
301.468 332.443 265.563 8 26 54
301.395 332.814 266.489 9 26 55
300.418 340.194 268.852 16 37 66
298.299 356.971 270.593 22 42 72
297.516 361.785 277.243 15 5 60
297.361 361.802 282.625 6 4 65
296.455 368.811 284.063 4 2 50
296.772 364.05 293.562 6 7 74
296.7 364.421 294.487 6 5 71
297.058 359.838 301.758 17 11 83
296.13 365.395 310.259 28 12 82
295.811 367.43 312.658 17 11 84
292.295 397.268 306.885 41 23 62
291.71 402.241 305.923 49 30 59
287.386 432.716 325.763 107 105 114
307.211 324.94 131.811 103 96 99
306.644 328.639 135.683 88 80 86
304.781 341.752 144.318 65 67 68
304.431 344.336 145.414 72 65 70
303.587 350.247 149.458 82 76 84
304.334 340.531 165.302 42 43 53
306.406 318.125 189.585 28 19 101
306.045 319.983 194.213 36 22 109
305.137 324.266 207.549 21 12 86
304.862 319.027 239.882 7 17 45
304.745 316.496 254.935 6 12 41
304.528 317.611 257.712 9 15 35
303.262 326.477 263.777 12 21 47
302.182 334.777 265.762 13 27 57
301.76 337.732 267.784 15 33 65
298.941 359.677 271.718 15 32 59
298.652 361.164 275.42 5 8 52
298.786 359.695 277.1 8 8 57
298.714 360.067 278.026 11 5 63
298.45 355.553 306.828 9 14 87
292.702 402.363 305.952 47 33 51
292.002 407.531 308.144 66 62 63
291.085 413.814 313.113 86 82 82
290.508 416.787 320.517 90 88 88
308.625 322.107 129.817 126 118 112
308.409 323.222 132.594 102 97 98
307.348 330.247 139.414 63 61 67
307.275 330.619 140.339 60 56 64
305.557 342.989 147.123 73 65 75
304.99 346.688 150.996 83 80 87
305.051 345.591 153.602 100 85 89
305.171 340.671 170.713 14 3 9
307.009 323.38 181.04 24 5 27
307.356 318.07 191.842 34 24 102
307.284 318.442 192.768 34 22 103
306.748 321.592 197.944 31 18 108
305.015 330.511 220.157 28 39 74
305.046 329.963 221.46 23 38 73
305.637 320.264 242.687 6 19 45
305.698 319.167 245.294 5 16 42
305.759 318.069 247.9 4 14 41
305.543 319.184 250.677 4 14 41
305.243 319.945 257.911 7 15 39
302.691 338.952 265.206 17 29 61
301.569 347.075 269.42 21 42 71
301.291 349.287 269.59 17 43 71
300.283 357.216 270.65 23 35 67
300.006 359.428 270.82 18 30 60
299.983 357.977 277.884 8 7 60
299.197 360.065 296.431 10 5 72
299.658 354.561 304.08 31 12 86
299.514 355.304 305.931 22 11 89
298.392 363.427 310.145 21 10 79
293.055 406.556 310.778 75 56 63
309.595 320.778 136.909 91 85 89
306.393 343.129 152.534 86 84 91
306.443 341.306 158.672 81 78 82
306.227 342.421 161.449 65 62 66
305.938 343.908 165.151 29 34 33
308.279 321.29 180.898 11 2 10
307.524 322.829 200.749 28 15 103
307.409 323.024 203.903 16 10 99
306.621 322.386 234.349 13 25 60
306.549 322.758 235.275 11 22 58
306.307 319.696 257.013 10 15 41
304.31 334.278 263.967 14 28 56
300.748 358.488 284.221 11 3 60
300.326 361.444 286.242 7 2 58
300.456 357.249 299.821 17 10 80
300.784 353.214 305.788 26 12 88
293.819 407.068 317.115 81 73 72
293.675 407.811 318.966 84 78 80
292.203 418.518 324.276 83 83 86
291.503 423.685 326.468 92 86 90
290.134 433.472 332.156 105 88 98
310.609 322.351 129.874 100 89 98
310.298 322.387 140.639 73 65 75
309.537 328.652 140.225 60 59 65
308.663 335.111 142.966 69 62 67
307.744 338.668 159.833 80 68 79
307.455 340.155 163.535 59 46 54
307.588 338.686 165.216 50 42 47
307.022 342.384 169.089 15 9 16
309.332 320.315 183.532 14 7 22
309.607 315.377 195.26 39 22 91
308.618 322.031 201.154 33 17 103
308.607 321.306 204.686 18 13 101
307.752 326.491 212.261 11 9 81
306.61 335.888 211.64 4 7 60
306.958 330.579 222.443 21 41 73
307.26 322.367 247.372 4 14 42
302.378 354.54 279.45 8 5 64
301.379 360.469 288.877 11 4 70
301.632 354.08 307.668 21 11 82
297.797 385.953 304.295 16 10 74
296.264 397.757 306.999 49 41 45
295.161 404.606 316.047 73 60 61
294.872 406.093 319.75 81 72 76
309.024 337.304 156.159 90 87 91
310.516 315.146 199.746 36 19 100
309.433 320.72 213.629 13 7 86
307.991 330.878 220.242 20 45 69
307.964 323.976 251.102 6 14 41
307.067 328.984 260.906 13 23 52
304.34 349.283 268.749 29 42 71
302.91 360.167 271.831 8 11 30
302.585 356.751 298.026 14 7 80
302.718 355.282 299.707 15 10 81
303.046 351.247 305.674 13 12 83
297.811 393.455 306.686 22 38 44
296.67 402.853 306.065 56 51 58
296.381 404.339 309.767 50 46 53
296.298 403.985 314.224 59 49 53
296.009 405.472 317.927 70 61 63
296.101 403.826 321.836 75 72 75
295.009 411.4 327.353 82 84 89
293.477 423.205 330.057 89 84 87
292.827 426.549 338.387 94 83 88
312.799 320.756 130.685 103 96 100
310.366 334.842 155.091 91 88 93
311.469 317.817 190.104 14 4 12
311.641 313.799 201.454 26 18 97
309.142 323.532 247.051 7 17 45
308.997 324.275 248.902 6 17 43
308.131 328.735 260.009 14 24 50
307.853 330.947 260.179 13 26 51
307.781 331.319 261.105 12 27 53
307.153 336.114 262.372 13 27 59
306.526 340.911 263.638 25 34 63
306.381 341.654 265.489 25 39 66
305.476 348.662 266.926 21 43 73
303.963 359.192 274.465 7 5 60
303.821 352.484 308.479 14 12 76
303.266 356.908 308.82 19 11 74
302.844 359.864 310.842 12 10 68
299.636 386.941 306.203 25 20 41
297.598 401.347 315.385 51 44 50
312.225 330.505 144.013 67 61 65
312.142 330.151 148.47 70 70 76
311.636 332.753 154.949 83 87 91
311.192 334.257 164.034 48 58 55
309.792 334.415 212.48 16 8 79
309.984 329.123 228.665 21 41 72
310.073 324.751 244.473 6 20 50
309.928 325.495 246.324 8 20 47
307.024 344.36 266.614 20 45 73
306.396 349.156 267.88 23 44 77
305.663 352.147 280.668 6 4 73
305.591 352.518 281.593 7 4 70
305.124 352.571 297.742 7 14 84
304.813 352.606 308.508 14 12 74
298.715 402 308.728 58 57 59
298.651 400.372 318.02 53 47 50
296.705 413.132 331.112 82 86 89
295.438 421.998 337.177 81 76 79
314.589 323.566 126.455 104 92 100
315.994 308.506 142.336 74 85 82
312.534 331.795 162.966 58 58 63
312.039 335.122 165.913 34 41 45
313.808 310.752 209.329 26 17 100
313.736 311.123 210.255 25 14 101
310.701 334.183 216.966 18 22 63
310.823 331.989 222.178 21 42 73
311.148 325.228 240.044 10 25 59
308.788 338.943 263.524 19 38 66
306.283 353.401 288.856 9 6 68
306.189 352.322 296.845 12 9 86
303.348 372.815 307.842 13 18 47
300.86 393.451 305.845 47 47 47
300.16 398.618 308.037 56 55 65
299.344 401.255 325.282 73 66 69
298.632 405.697 331.006 92 89 91
296.564 420.651 338.886 79 74 79
297.127 414.227 346.911 86 86 88
296.766 416.085 351.539 90 82 90
296.755 415.359 355.071 75 66 91
296.611 416.103 356.922 62 45 135
296.456 416.12 362.305 60 70 113
317.741 307.089 122.513 111 103 107
317.597 307.832 124.364 104 95 102
317.13 307.885 140.513 86 85 85
314.259 328.927 150.207 76 78 82
314.309 327.104 156.345 81 81 83
312.321 339.687 171.666 37 39 45
315.234 308.644 203.804 24 16 70
314.862 309.777 211.964 28 20 102
314.09 315.316 215.082 19 12 95
311.957 328.642 232.254 22 41 70
312.079 326.447 237.466 15 34 66
311.479 327.969 251.934 3 21 50
311.263 329.084 254.711 7 20 50
301.069 398.387 312.523 49 50 54
298.461 413.765 337.477 81 77 81
298.797 407.73 351.811 87 86 90
298.231 411.429 355.684 84 79 88
298.086 412.172 357.535 42 39 110
318.867 305.742 124.222 99 96 100
317.761 309.865 145.169 56 64 67
315.457 327.209 150.99 79 74 80
315.434 325.757 158.054 81 78 80
315.073 327.615 162.682 66 56 64
314.012 334.641 169.502 39 36 41
313.735 336.853 169.672 39 37 42
316.173 307.864 209.593 20 13 87
315.359 313.226 214.939 22 15 97
312.819 332.959 218.703 21 21 71
312.877 329.136 233.207 25 41 72
312.916 326.587 242.877 11 30 58
312.832 326.233 247.334 14 25 58
309.372 349.523 267.965 25 44 71
308.559 354.885 273.311 9 4 58
308.773 351.045 282.433 7 4 67
308.811 348.496 292.103 10 4 74
309.014 343.93 304.756 13 9 78
308.664 346.514 305.852 11 5 73
308.417 348.177 307.326 12 7 68
302.172 395.589 321.295 45 44 43
302.016 395.606 326.678 58 51 56
301.716 396.367 333.912 92 82 85
300.811 403.375 335.349 81 84 87
299.545 412.242 341.414 77 78 77
299.462 411.888 345.872 83 82 84
299.861 407.481 350.913 85 86 88
298.44 416.365 362.361 68 60 117
298.162 418.577 362.532 72 73 106
320.014 305.847 118.867 102 95 103
319.931 305.493 123.324 98 91 98
316.521 326.959 150.093 77 72 77
316.632 324.039 158.837 78 76 78
316.415 325.154 161.614 74 66 71
316.127 326.641 165.316 53 48 53
317.496 306.677 203.69 14 5 34
313.83 331.807 223.566 24 44 77
313.952 329.612 228.778 28 41 78
313.786 328.905 237.693 17 40 72
313.569 330.019 240.47 14 36 65
310.859 346.318 265.046 26 45 77
309.901 352.424 272.244 6 8 50
310.887 343.044 278.248 7 4 61
310.142 345.309 294.567 10 7 77
308.226 357.52 308.962 16 12 36
304.03 391.252 310.217 52 54 54
303.958 391.623 311.142 54 54 56
303.247 396.065 316.866 38 43 46
303.142 394.26 328.387 58 52 54
301.048 405.037 355.229 86 83 92
320.14 310.429 130.002 96 93 96
319.995 311.172 131.853 91 92 96
316.274 332.674 169.388 30 36 41
315.974 333.435 176.622 64 63 64
316.497 326.833 186.876 29 34 38
318.415 307.171 204.644 12 6 31
314.728 330.85 231.583 26 43 79
314.778 329.027 237.721 18 42 75
312.767 340.158 260.105 18 42 72
312.201 343.857 263.978 25 46 79
311.429 349.396 267.096 32 45 71
311.037 351.803 270.421 11 15 53
311.734 343.91 280.127 9 4 71
311.59 344.653 281.978 10 4 72
311.298 343.414 297.579 14 10 80
307.46 372.562 306.104 32 37 42
306.7 378.826 305.69 39 45 50
305.022 391.374 310.245 52 51 51
304.384 395.444 315.043 52 52 54
304.4 391.444 331.776 67 59 59
302.084 408.062 341.13 79 78 79
301.796 409.549 344.832 71 76 79
322.276 303.879 118.753 87 71 106
321.326 307.985 134.317 91 90 93
319.544 318.727 150.393 78 71 67
319.121 321.682 152.415 77 73 79
319.16 319.134 162.084 72 64 73
317.472 330.956 170.171 33 36 42
317.716 326.566 180.596 63 60 72
317.633 326.212 185.053 45 46 53
319.335 307.665 205.598 7 7 23
318.838 308.266 220.444 23 12 96
318.622 309.381 223.22 16 7 96
315.723 333.698 219.713 23 17 80
315.398 330.282 245.909 18 40 69
312.029 351.925 270.449 7 9 55
312.015 348.474 285.879 10 3 69
312.065 346.651 292.017 11 7 83
312.496 341.696 298.362 14 11 81
312.546 339.872 304.5 10 8 75
307.692 378.949 305.718 41 47 53
306.437 388.541 308.252 39 39 45
305.598 389.726 332.56 63 55 55
305.381 390.841 335.336 74 68 70
304.393 397.495 341.231 81 83 86
323.646 298.144 130.887 91 86 92
323.129 300.019 140.897 87 85 88
323.077 299.117 146.658 70 72 78
321.163 314.053 149.155 56 52 58
318.442 329.627 177.263 65 63 66
318.842 325.22 182.305 56 67 71
319.044 320.654 194.958 29 38 42
319.264 312.087 224.345 14 10 90
316.94 330.705 225.331 15 50 82
316.401 331.13 242.406 18 45 75
316.318 330.776 246.863 21 41 73
315.39 336.332 255.364 21 43 72
314.751 340.403 260.162 20 46 76
314.679 340.774 261.087 20 47 79
313.407 344.19 290.949 14 5 78
313.682 339.252 302.677 12 9 73
309.661 371.691 303.384 23 15 18
307.501 388.292 307.354 47 42 51
307.417 387.938 311.811 48 47 48
306.923 391.265 314.759 59 53 57
306.562 393.123 319.387 41 47 54
306.723 388.38 334.269 63 55 55
306.579 389.123 336.12 69 64 68
306.362 390.238 338.896 82 78 79
304.724 400.237 353.121 82 80 82
324.199 305.221 116.203 51 25 122
324.927 296.779 127.213 90 89 91
325.018 295.133 131.122 85 84 90
324.338 299.027 138.149 91 87 91
321.65 316.777 155.662 74 76 77
321.578 317.149 156.587 75 72 77
319.445 330.475 173.759 56 51 54
320.028 322.776 186.62 54 53 58
320.006 321.325 193.683 41 45 52
320.703 313.431 203.389 10 13 25
321.042 310.122 205.825 3 7 21
321.667 302.6 216.457 20 8 62
317.798 332.297 223.679 24 38 84
317.837 329.748 233.349 27 55 87
317.826 329.022 236.88 29 49 84
316.743 334.597 250.764 17 43 76
316.382 336.455 255.392 22 43 76
316.238 337.198 257.243 22 44 76
315.816 340.154 259.265 26 46 77
315.743 340.525 260.19 27 47 78
315.527 341.64 262.967 29 49 83
315.249 343.852 263.137 29 50 83
315.338 339.481 278.945 8 6 70
314.627 343.923 284.669 8 3 73
314.53 340.117 304.556 8 5 66
313.902 344.913 305.823 9 11 55
313.553 347.497 306.919 15 15 47
308.265 388.803 313.691 55 52 49
307.554 393.245 319.415 45 50 56
