ply
    format ascii 1.0
    element vertex 8721
    property float x
    property float y
    property float z
    property uchar red
    property uchar green
    property uchar blue
    end_header
216.000000 -258.000000 65019.000000 2 2 4
217.000000 -258.000000 65014.000000 2 1 4
218.000000 -258.000000 65014.000000 1 1 5
219.000000 -258.000000 65012.000000 1 1 3
220.000000 -258.000000 65011.000000 1 1 1
221.000000 -258.000000 65011.000000 1 1 1
222.000000 -258.000000 65012.000000 1 1 1
223.000000 -258.000000 65012.000000 1 1 2
224.000000 -258.000000 65013.000000 4 1 3
225.000000 -258.000000 65015.000000 7 2 10
226.000000 -258.000000 65016.000000 20 8 18
227.000000 -258.000000 65017.000000 34 9 9
228.000000 -258.000000 65018.000000 20 3 1
229.000000 -258.000000 65019.000000 6 3 1
230.000000 -258.000000 65019.000000 14 4 1
237.000000 -258.000000 65020.000000 10 6 1
238.000000 -258.000000 65020.000000 19 10 2
239.000000 -258.000000 65020.000000 29 11 2
240.000000 -258.000000 65020.000000 46 12 1
241.000000 -258.000000 65021.000000 64 17 1
242.000000 -258.000000 65022.000000 46 9 1
243.000000 -258.000000 65021.000000 28 6 1
244.000000 -258.000000 65022.000000 23 4 1
245.000000 -258.000000 65021.000000 19 6 7
246.000000 -258.000000 65021.000000 19 8 13
247.000000 -258.000000 65022.000000 19 5 7
248.000000 -258.000000 65020.000000 17 2 1
249.000000 -258.000000 65020.000000 16 2 1
250.000000 -258.000000 65020.000000 15 2 1
251.000000 -258.000000 65020.000000 14 3 1
252.000000 -258.000000 65020.000000 17 5 1
253.000000 -258.000000 65020.000000 21 7 1
254.000000 -258.000000 65017.000000 33 9 1
255.000000 -258.000000 65017.000000 46 5 1
256.000000 -258.000000 65017.000000 29 2 1
257.000000 -258.000000 65017.000000 12 2 1
258.000000 -258.000000 65016.000000 7 1 1
259.000000 -258.000000 65016.000000 3 1 1
260.000000 -258.000000 65016.000000 2 1 1
261.000000 -258.000000 65015.000000 2 1 1
262.000000 -258.000000 65014.000000 2 1 1
263.000000 -258.000000 65014.000000 3 1 1
264.000000 -258.000000 65015.000000 5 2 1
265.000000 -258.000000 65015.000000 7 1 1
266.000000 -258.000000 65017.000000 4 1 1
267.000000 -258.000000 65017.000000 2 1 1
268.000000 -258.000000 65017.000000 5 1 1
212.000000 -259.000000 65020.000000 2 1 1
213.000000 -259.000000 65020.000000 3 1 1
214.000000 -259.000000 65020.000000 2 1 1
215.000000 -259.000000 65019.000000 2 1 2
216.000000 -259.000000 65019.000000 2 1 4
217.000000 -259.000000 65014.000000 2 1 2
218.000000 -259.000000 65014.000000 2 1 1
219.000000 -259.000000 65013.000000 2 2 1
220.000000 -259.000000 65012.000000 1 2 1
221.000000 -259.000000 65011.000000 1 2 1
222.000000 -259.000000 65012.000000 1 1 1
223.000000 -259.000000 65013.000000 1 1 2
224.000000 -259.000000 65013.000000 5 1 4
225.000000 -259.000000 65015.000000 10 3 3
226.000000 -259.000000 65016.000000 31 9 2
227.000000 -259.000000 65017.000000 52 15 1
228.000000 -259.000000 65018.000000 32 4 1
229.000000 -259.000000 65019.000000 12 6 1
230.000000 -259.000000 65020.000000 15 4 1
231.000000 -259.000000 65020.000000 18 7 1
237.000000 -259.000000 65020.000000 11 5 1
238.000000 -259.000000 65020.000000 18 7 1
239.000000 -259.000000 65020.000000 25 9 1
240.000000 -259.000000 65020.000000 39 11 1
241.000000 -259.000000 65020.000000 54 17 1
242.000000 -259.000000 65021.000000 43 14 1
243.000000 -259.000000 65022.000000 31 12 1
244.000000 -259.000000 65021.000000 21 11 1
245.000000 -259.000000 65022.000000 11 10 13
246.000000 -259.000000 65021.000000 14 9 26
247.000000 -259.000000 65022.000000 18 8 13
248.000000 -259.000000 65020.000000 18 3 1
249.000000 -259.000000 65020.000000 19 3 1
250.000000 -259.000000 65020.000000 15 2 1
251.000000 -259.000000 65021.000000 12 2 1
252.000000 -259.000000 65020.000000 16 4 1
253.000000 -259.000000 65020.000000 21 10 1
254.000000 -259.000000 65017.000000 28 8 2
255.000000 -259.000000 65017.000000 35 7 1
256.000000 -259.000000 65017.000000 24 3 1
257.000000 -259.000000 65017.000000 13 3 1
258.000000 -259.000000 65017.000000 9 1 1
259.000000 -259.000000 65016.000000 6 1 1
260.000000 -259.000000 65016.000000 4 1 1
261.000000 -259.000000 65015.000000 3 2 1
262.000000 -259.000000 65014.000000 4 2 1
263.000000 -259.000000 65014.000000 6 2 1
264.000000 -259.000000 65015.000000 9 2 1
265.000000 -259.000000 65015.000000 12 2 1
266.000000 -259.000000 65017.000000 10 2 1
267.000000 -259.000000 65017.000000 8 2 1
268.000000 -259.000000 65016.000000 9 2 1
269.000000 -259.000000 65016.000000 11 3 1
212.000000 -260.000000 65018.000000 2 1 1
213.000000 -260.000000 65019.000000 3 1 1
214.000000 -260.000000 65019.000000 2 1 1
215.000000 -260.000000 65019.000000 2 1 1
216.000000 -260.000000 65017.000000 2 1 2
217.000000 -260.000000 65017.000000 3 1 1
218.000000 -260.000000 65013.000000 3 1 1
219.000000 -260.000000 65012.000000 3 2 1
220.000000 -260.000000 65012.000000 2 2 1
221.000000 -260.000000 65011.000000 2 2 1
222.000000 -260.000000 65012.000000 1 1 1
223.000000 -260.000000 65013.000000 1 1 1
224.000000 -260.000000 65013.000000 7 1 2
225.000000 -260.000000 65015.000000 13 2 8
226.000000 -260.000000 65015.000000 42 26 13
227.000000 -260.000000 65017.000000 71 18 7
228.000000 -260.000000 65018.000000 44 5 1
229.000000 -260.000000 65020.000000 18 4 1
230.000000 -260.000000 65020.000000 16 4 1
231.000000 -260.000000 65020.000000 14 5 1
232.000000 -260.000000 65020.000000 15 7 1
237.000000 -260.000000 65020.000000 13 2 1
238.000000 -260.000000 65020.000000 17 2 1
239.000000 -260.000000 65020.000000 21 9 1
240.000000 -260.000000 65020.000000 33 10 1
241.000000 -260.000000 65021.000000 45 13 1
242.000000 -260.000000 65022.000000 40 16 1
243.000000 -260.000000 65023.000000 35 12 1
244.000000 -260.000000 65023.000000 19 9 1
245.000000 -260.000000 65023.000000 3 9 7
246.000000 -260.000000 65021.000000 10 10 13
247.000000 -260.000000 65023.000000 17 8 7
248.000000 -260.000000 65021.000000 19 4 1
249.000000 -260.000000 65021.000000 22 2 1
250.000000 -260.000000 65021.000000 16 1 1
251.000000 -260.000000 65022.000000 11 2 1
252.000000 -260.000000 65021.000000 16 3 1
253.000000 -260.000000 65021.000000 21 10 1
254.000000 -260.000000 65021.000000 23 6 1
255.000000 -260.000000 65019.000000 25 5 1
256.000000 -260.000000 65019.000000 20 5 1
257.000000 -260.000000 65019.000000 15 4 1
258.000000 -260.000000 65017.000000 12 1 1
259.000000 -260.000000 65016.000000 9 2 2
260.000000 -260.000000 65016.000000 6 3 3
261.000000 -260.000000 65015.000000 4 2 2
262.000000 -260.000000 65015.000000 7 2 1
263.000000 -260.000000 65014.000000 10 3 1
264.000000 -260.000000 65015.000000 13 4 1
265.000000 -260.000000 65015.000000 17 3 2
266.000000 -260.000000 65016.000000 15 3 3
267.000000 -260.000000 65016.000000 14 3 2
268.000000 -260.000000 65016.000000 14 4 1
269.000000 -260.000000 65016.000000 14 4 1
271.000000 -260.000000 65015.000000 17 2 3
272.000000 -260.000000 65015.000000 9 9 5
212.000000 -261.000000 65019.000000 2 1 1
213.000000 -261.000000 65020.000000 2 1 1
214.000000 -261.000000 65020.000000 2 1 1
215.000000 -261.000000 65019.000000 3 1 1
216.000000 -261.000000 65019.000000 3 1 1
217.000000 -261.000000 65014.000000 4 2 1
218.000000 -261.000000 65013.000000 4 2 1
219.000000 -261.000000 65012.000000 5 2 1
220.000000 -261.000000 65012.000000 4 2 1
221.000000 -261.000000 65011.000000 3 3 1
222.000000 -261.000000 65011.000000 2 3 1
223.000000 -261.000000 65010.000000 2 3 1
224.000000 -261.000000 65010.000000 7 1 1
225.000000 -261.000000 65010.000000 13 1 13
226.000000 -261.000000 65017.000000 34 26 25
227.000000 -261.000000 65018.000000 55 21 13
228.000000 -261.000000 65019.000000 39 8 1
229.000000 -261.000000 65020.000000 24 3 1
230.000000 -261.000000 65020.000000 19 3 1
231.000000 -261.000000 65020.000000 15 3 1
232.000000 -261.000000 65021.000000 16 7 1
233.000000 -261.000000 65020.000000 17 7 1
234.000000 -261.000000 65021.000000 17 8 2
235.000000 -261.000000 65021.000000 17 12 1
236.000000 -261.000000 65020.000000 17 9 1
237.000000 -261.000000 65020.000000 17 7 1
238.000000 -261.000000 65020.000000 19 2 1
239.000000 -261.000000 65020.000000 21 9 1
240.000000 -261.000000 65020.000000 37 13 1
241.000000 -261.000000 65020.000000 54 40 1
242.000000 -261.000000 65021.000000 47 26 2
243.000000 -261.000000 65022.000000 39 12 1
244.000000 -261.000000 65023.000000 25 6 1
245.000000 -261.000000 65023.000000 10 4 1
246.000000 -261.000000 65023.000000 14 9 1
247.000000 -261.000000 65023.000000 18 9 1
248.000000 -261.000000 65023.000000 22 11 1
249.000000 -261.000000 65022.000000 27 13 1
250.000000 -261.000000 65022.000000 24 11 1
251.000000 -261.000000 65023.000000 21 10 1
252.000000 -261.000000 65023.000000 24 10 1
253.000000 -261.000000 65022.000000 26 10 1
254.000000 -261.000000 65022.000000 25 11 1
255.000000 -261.000000 65020.000000 24 12 1
256.000000 -261.000000 65020.000000 20 7 1
257.000000 -261.000000 65020.000000 16 5 1
258.000000 -261.000000 65016.000000 16 4 1
259.000000 -261.000000 65016.000000 16 4 3
260.000000 -261.000000 65016.000000 10 4 5
261.000000 -261.000000 65014.000000 3 5 3
262.000000 -261.000000 65014.000000 7 5 1
263.000000 -261.000000 65014.000000 11 6 1
264.000000 -261.000000 65014.000000 15 5 1
265.000000 -261.000000 65014.000000 20 3 3
266.000000 -261.000000 65016.000000 20 4 5
267.000000 -261.000000 65016.000000 20 7 3
268.000000 -261.000000 65016.000000 20 7 1
270.000000 -261.000000 65014.000000 20 5 1
271.000000 -261.000000 65015.000000 21 3 1
272.000000 -261.000000 65016.000000 18 9 1
273.000000 -261.000000 65015.000000 15 9 11
274.000000 -261.000000 65015.000000 30 11 21
212.000000 -262.000000 65019.000000 2 1 1
213.000000 -262.000000 65020.000000 2 1 1
214.000000 -262.000000 65020.000000 3 1 1
215.000000 -262.000000 65020.000000 4 1 1
216.000000 -262.000000 65013.000000 5 2 1
217.000000 -262.000000 65013.000000 6 2 7
218.000000 -262.000000 65013.000000 6 4 13
219.000000 -262.000000 65012.000000 7 3 7
220.000000 -262.000000 65011.000000 5 3 1
221.000000 -262.000000 65010.000000 4 3 1
222.000000 -262.000000 65010.000000 3 3 1
223.000000 -262.000000 65012.000000 3 2 1
224.000000 -262.000000 65012.000000 8 1 1
225.000000 -262.000000 65012.000000 13 1 7
226.000000 -262.000000 65017.000000 26 27 13
227.000000 -262.000000 65018.000000 39 17 7
228.000000 -262.000000 65019.000000 34 11 1
229.000000 -262.000000 65020.000000 30 4 1
230.000000 -262.000000 65020.000000 23 4 1
231.000000 -262.000000 65021.000000 17 3 1
232.000000 -262.000000 65020.000000 17 7 1
233.000000 -262.000000 65020.000000 18 6 1
234.000000 -262.000000 65022.000000 16 10 1
235.000000 -262.000000 65022.000000 15 11 1
236.000000 -262.000000 65020.000000 18 12 1
237.000000 -262.000000 65020.000000 22 7 1
238.000000 -262.000000 65021.000000 21 2 1
239.000000 -262.000000 65020.000000 21 6 1
240.000000 -262.000000 65020.000000 42 17 1
241.000000 -262.000000 65020.000000 64 39 2
242.000000 -262.000000 65022.000000 54 47 2
243.000000 -262.000000 65023.000000 44 25 1
244.000000 -262.000000 65023.000000 31 4 1
245.000000 -262.000000 65023.000000 18 3 1
246.000000 -262.000000 65023.000000 18 9 1
247.000000 -262.000000 65023.000000 19 11 1
248.000000 -262.000000 65022.000000 25 16 1
249.000000 -262.000000 65022.000000 32 13 1
250.000000 -262.000000 65023.000000 32 14 1
251.000000 -262.000000 65023.000000 32 9 1
252.000000 -262.000000 65023.000000 32 12 1
253.000000 -262.000000 65023.000000 32 9 1
254.000000 -262.000000 65020.000000 28 17 1
255.000000 -262.000000 65020.000000 24 9 1
256.000000 -262.000000 65020.000000 20 9 1
257.000000 -262.000000 65020.000000 17 4 1
258.000000 -262.000000 65016.000000 20 3 1
259.000000 -262.000000 65016.000000 24 4 2
260.000000 -262.000000 65016.000000 13 10 3
261.000000 -262.000000 65014.000000 3 8 2
262.000000 -262.000000 65014.000000 7 7 1
263.000000 -262.000000 65014.000000 12 6 1
264.000000 -262.000000 65014.000000 17 6 1
265.000000 -262.000000 65014.000000 23 6 2
266.000000 -262.000000 65015.000000 24 6 3
267.000000 -262.000000 65015.000000 26 6 2
268.000000 -262.000000 65015.000000 26 8 1
269.000000 -262.000000 65014.000000 26 8 1
270.000000 -262.000000 65014.000000 25 7 2
271.000000 -262.000000 65014.000000 25 8 1
272.000000 -262.000000 65015.000000 27 10 1
273.000000 -262.000000 65014.000000 29 13 6
274.000000 -262.000000 65014.000000 32 19 11
275.000000 -262.000000 65014.000000 36 44 44
213.000000 -263.000000 65019.000000 2 1 1
214.000000 -263.000000 65019.000000 3 1 1
215.000000 -263.000000 65019.000000 4 2 1
216.000000 -263.000000 65013.000000 13 2 1
217.000000 -263.000000 65013.000000 22 3 13
218.000000 -263.000000 65013.000000 14 4 25
219.000000 -263.000000 65013.000000 6 7 13
220.000000 -263.000000 65011.000000 5 3 1
221.000000 -263.000000 65010.000000 4 3 1
222.000000 -263.000000 65012.000000 3 2 1
223.000000 -263.000000 65012.000000 3 2 1
224.000000 -263.000000 65012.000000 5 1 1
225.000000 -263.000000 65012.000000 7 1 1
226.000000 -263.000000 65018.000000 20 7 1
227.000000 -263.000000 65018.000000 34 13 1
228.000000 -263.000000 65019.000000 36 9 1
229.000000 -263.000000 65020.000000 38 5 1
230.000000 -263.000000 65020.000000 27 4 1
231.000000 -263.000000 65021.000000 17 4 1
232.000000 -263.000000 65021.000000 14 5 1
233.000000 -263.000000 65022.000000 12 6 1
234.000000 -263.000000 65022.000000 14 7 1
235.000000 -263.000000 65022.000000 16 9 1
236.000000 -263.000000 65022.000000 19 8 1
237.000000 -263.000000 65022.000000 22 7 1
238.000000 -263.000000 65022.000000 19 4 2
239.000000 -263.000000 65022.000000 15 3 2
240.000000 -263.000000 65022.000000 35 10 2
241.000000 -263.000000 65022.000000 55 39 2
242.000000 -263.000000 65023.000000 50 39 3
243.000000 -263.000000 65023.000000 45 39 2
244.000000 -263.000000 65023.000000 32 6 1
245.000000 -263.000000 65023.000000 19 3 1
246.000000 -263.000000 65023.000000 20 7 1
247.000000 -263.000000 65023.000000 21 13 1
248.000000 -263.000000 65022.000000 26 13 1
249.000000 -263.000000 65022.000000 31 13 1
250.000000 -263.000000 65023.000000 35 14 1
251.000000 -263.000000 65023.000000 39 9 1
252.000000 -263.000000 65023.000000 34 8 1
253.000000 -263.000000 65022.000000 29 8 1
254.000000 -263.000000 65022.000000 24 7 1
255.000000 -263.000000 65021.000000 20 7 1
256.000000 -263.000000 65021.000000 14 5 1
257.000000 -263.000000 65020.000000 9 4 1
258.000000 -263.000000 65020.000000 13 4 1
259.000000 -263.000000 65014.000000 17 4 1
260.000000 -263.000000 65014.000000 12 10 1
261.000000 -263.000000 65014.000000 7 10 1
262.000000 -263.000000 65014.000000 11 7 1
263.000000 -263.000000 65014.000000 16 9 1
264.000000 -263.000000 65014.000000 24 9 1
265.000000 -263.000000 65014.000000 31 10 1
266.000000 -263.000000 65015.000000 33 8 1
267.000000 -263.000000 65014.000000 34 6 1
268.000000 -263.000000 65014.000000 31 8 1
269.000000 -263.000000 65013.000000 28 8 2
270.000000 -263.000000 65013.000000 28 10 4
271.000000 -263.000000 65014.000000 28 16 2
272.000000 -263.000000 65014.000000 31 16 1
273.000000 -263.000000 65014.000000 35 17 1
274.000000 -263.000000 65014.000000 35 11 1
275.000000 -263.000000 65014.000000 36 5 34
276.000000 -263.000000 65014.000000 81 73 67
212.000000 -264.000000 65017.000000 3 1 1
213.000000 -264.000000 65017.000000 2 1 1
214.000000 -264.000000 65014.000000 3 2 1
215.000000 -264.000000 65013.000000 5 2 1
216.000000 -264.000000 65013.000000 21 3 1
217.000000 -264.000000 65013.000000 38 3 7
218.000000 -264.000000 65013.000000 22 4 13
219.000000 -264.000000 65012.000000 6 4 7
220.000000 -264.000000 65011.000000 5 4 1
221.000000 -264.000000 65011.000000 4 3 1
222.000000 -264.000000 65012.000000 3 2 1
223.000000 -264.000000 65012.000000 3 1 1
224.000000 -264.000000 65012.000000 2 1 1
226.000000 -264.000000 65018.000000 15 6 5
227.000000 -264.000000 65018.000000 30 15 6
228.000000 -264.000000 65020.000000 38 35 8
229.000000 -264.000000 65020.000000 46 22 4
230.000000 -264.000000 65020.000000 31 10 1
231.000000 -264.000000 65021.000000 17 3 1
232.000000 -264.000000 65021.000000 12 2 1
233.000000 -264.000000 65021.000000 7 2 1
234.000000 -264.000000 65022.000000 12 3 1
235.000000 -264.000000 65022.000000 17 6 1
236.000000 -264.000000 65022.000000 20 6 1
237.000000 -264.000000 65023.000000 23 6 1
238.000000 -264.000000 65023.000000 16 6 1
239.000000 -264.000000 65023.000000 10 4 1
240.000000 -264.000000 65023.000000 28 3 1
241.000000 -264.000000 65022.000000 46 30 2
242.000000 -264.000000 65023.000000 46 58 3
243.000000 -264.000000 65023.000000 46 45 2
244.000000 -264.000000 65021.000000 33 8 1
245.000000 -264.000000 65021.000000 21 4 1
246.000000 -264.000000 65021.000000 22 5 1
247.000000 -264.000000 65023.000000 23 10 1
248.000000 -264.000000 65022.000000 27 14 1
249.000000 -264.000000 65023.000000 31 14 1
250.000000 -264.000000 65023.000000 38 14 1
251.000000 -264.000000 65023.000000 46 10 1
252.000000 -264.000000 65023.000000 36 9 1
253.000000 -264.000000 65021.000000 26 8 1
254.000000 -264.000000 65021.000000 21 8 1
255.000000 -264.000000 65020.000000 16 5 1
256.000000 -264.000000 65020.000000 8 4 1
257.000000 -264.000000 65020.000000 1 4 1
258.000000 -264.000000 65020.000000 5 7 1
259.000000 -264.000000 65014.000000 10 4 1
260.000000 -264.000000 65014.000000 10 10 1
261.000000 -264.000000 65014.000000 11 8 1
262.000000 -264.000000 65013.000000 16 7 1
263.000000 -264.000000 65013.000000 21 9 1
264.000000 -264.000000 65014.000000 30 15 1
265.000000 -264.000000 65014.000000 40 14 1
266.000000 -264.000000 65014.000000 41 14 1
267.000000 -264.000000 65014.000000 43 11 1
268.000000 -264.000000 65013.000000 36 9 1
269.000000 -264.000000 65013.000000 30 11 1
270.000000 -264.000000 65013.000000 31 13 2
271.000000 -264.000000 65014.000000 32 14 1
272.000000 -264.000000 65014.000000 36 21 1
273.000000 -264.000000 65014.000000 41 15 1
274.000000 -264.000000 65014.000000 38 4 1
275.000000 -264.000000 65014.000000 36 23 30
276.000000 -264.000000 65014.000000 81 77 59
201.000000 -265.000000 65003.000000 97 60 7
202.000000 -265.000000 65004.000000 52 13 3
203.000000 -265.000000 65004.000000 7 2 2
211.000000 -265.000000 65015.000000 7 2 1
212.000000 -265.000000 65015.000000 4 2 1
213.000000 -265.000000 65015.000000 1 2 1
214.000000 -265.000000 65014.000000 5 2 1
215.000000 -265.000000 65013.000000 9 3 1
216.000000 -265.000000 65013.000000 19 4 1
217.000000 -265.000000 65013.000000 29 5 1
218.000000 -265.000000 65013.000000 18 3 1
219.000000 -265.000000 65013.000000 8 3 1
220.000000 -265.000000 65011.000000 6 3 1
221.000000 -265.000000 65011.000000 4 3 1
222.000000 -265.000000 65011.000000 3 1 1
223.000000 -265.000000 65012.000000 2 1 1
224.000000 -265.000000 65012.000000 3 1 1
228.000000 -265.000000 65020.000000 33 27 16
229.000000 -265.000000 65020.000000 38 43 8
230.000000 -265.000000 65021.000000 27 6 1
231.000000 -265.000000 65021.000000 17 2 1
232.000000 -265.000000 65022.000000 14 2 1
233.000000 -265.000000 65022.000000 12 3 1
234.000000 -265.000000 65023.000000 16 4 1
235.000000 -265.000000 65023.000000 20 6 1
236.000000 -265.000000 65022.000000 24 8 1
237.000000 -265.000000 65023.000000 27 11 1
238.000000 -265.000000 65023.000000 24 9 1
239.000000 -265.000000 65023.000000 20 8 1
240.000000 -265.000000 65023.000000 32 6 1
241.000000 -265.000000 65021.000000 44 21 2
242.000000 -265.000000 65021.000000 46 46 4
243.000000 -265.000000 65021.000000 48 52 2
244.000000 -265.000000 65021.000000 33 10 1
245.000000 -265.000000 65021.000000 19 5 1
246.000000 -265.000000 65021.000000 19 4 1
247.000000 -265.000000 65021.000000 19 7 1
248.000000 -265.000000 65022.000000 21 6 1
249.000000 -265.000000 65022.000000 24 6 1
250.000000 -265.000000 65022.000000 29 11 1
251.000000 -265.000000 65023.000000 34 12 1
252.000000 -265.000000 65022.000000 29 7 1
253.000000 -265.000000 65021.000000 24 6 1
254.000000 -265.000000 65021.000000 19 5 1
255.000000 -265.000000 65021.000000 14 3 1
256.000000 -265.000000 65020.000000 9 3 1
257.000000 -265.000000 65020.000000 4 5 1
258.000000 -265.000000 65020.000000 6 5 1
259.000000 -265.000000 65013.000000 8 5 1
260.000000 -265.000000 65013.000000 10 4 1
261.000000 -265.000000 65014.000000 12 4 1
262.000000 -265.000000 65013.000000 19 6 1
263.000000 -265.000000 65014.000000 26 10 1
264.000000 -265.000000 65014.000000 36 24 2
265.000000 -265.000000 65014.000000 47 38 2
266.000000 -265.000000 65015.000000 53 33 2
267.000000 -265.000000 65014.000000 59 28 1
268.000000 -265.000000 65014.000000 48 23 1
269.000000 -265.000000 65013.000000 37 18 1
270.000000 -265.000000 65013.000000 36 15 1
271.000000 -265.000000 65014.000000 35 12 1
272.000000 -265.000000 65014.000000 38 13 1
273.000000 -265.000000 65014.000000 41 14 1
274.000000 -265.000000 65015.000000 44 5 1
275.000000 -265.000000 65015.000000 47 42 26
276.000000 -265.000000 65015.000000 87 85 51
201.000000 -266.000000 65004.000000 117 79 23
202.000000 -266.000000 65004.000000 61 25 2
203.000000 -266.000000 65006.000000 6 4 1
204.000000 -266.000000 65006.000000 17 3 1
205.000000 -266.000000 65007.000000 28 4 1
206.000000 -266.000000 65007.000000 27 5 1
211.000000 -266.000000 65014.000000 9 2 1
212.000000 -266.000000 65014.000000 5 3 1
213.000000 -266.000000 65014.000000 1 4 1
214.000000 -266.000000 65013.000000 7 6 1
215.000000 -266.000000 65013.000000 13 5 1
216.000000 -266.000000 65013.000000 17 5 1
217.000000 -266.000000 65013.000000 21 5 1
218.000000 -266.000000 65013.000000 15 3 1
219.000000 -266.000000 65013.000000 10 3 1
220.000000 -266.000000 65011.000000 7 3 1
221.000000 -266.000000 65011.000000 5 2 1
222.000000 -266.000000 65011.000000 3 1 1
223.000000 -266.000000 65011.000000 2 1 1
224.000000 -266.000000 65011.000000 4 1 1
227.000000 -266.000000 65020.000000 26 10 7
228.000000 -266.000000 65020.000000 28 19 8
229.000000 -266.000000 65020.000000 30 11 4
230.000000 -266.000000 65021.000000 24 3 1
231.000000 -266.000000 65022.000000 18 3 1
232.000000 -266.000000 65022.000000 17 4 1
233.000000 -266.000000 65023.000000 17 4 1
234.000000 -266.000000 65023.000000 20 5 1
235.000000 -266.000000 65023.000000 24 9 1
236.000000 -266.000000 65022.000000 28 14 2
237.000000 -266.000000 65023.000000 32 13 1
238.000000 -266.000000 65023.000000 31 13 1
239.000000 -266.000000 65023.000000 31 11 1
240.000000 -266.000000 65023.000000 36 9 1
241.000000 -266.000000 65021.000000 42 23 1
242.000000 -266.000000 65021.000000 46 34 2
243.000000 -266.000000 65021.000000 51 46 1
244.000000 -266.000000 65021.000000 34 12 1
245.000000 -266.000000 65021.000000 17 3 1
246.000000 -266.000000 65021.000000 16 4 1
247.000000 -266.000000 65021.000000 16 3 1
248.000000 -266.000000 65022.000000 16 2 1
249.000000 -266.000000 65022.000000 17 3 1
250.000000 -266.000000 65022.000000 20 9 2
251.000000 -266.000000 65022.000000 23 7 1
252.000000 -266.000000 65021.000000 23 5 1
253.000000 -266.000000 65021.000000 23 5 1
254.000000 -266.000000 65021.000000 17 5 1
255.000000 -266.000000 65021.000000 12 2 1
256.000000 -266.000000 65021.000000 9 3 1
257.000000 -266.000000 65021.000000 7 3 1
258.000000 -266.000000 65021.000000 6 4 1
259.000000 -266.000000 65013.000000 6 3 1
260.000000 -266.000000 65013.000000 10 2 1
261.000000 -266.000000 65014.000000 14 3 1
262.000000 -266.000000 65014.000000 22 5 1
263.000000 -266.000000 65014.000000 31 7 1
264.000000 -266.000000 65014.000000 42 50 1
265.000000 -266.000000 65014.000000 54 40 16
266.000000 -266.000000 65015.000000 65 43 31
267.000000 -266.000000 65015.000000 76 36 16
268.000000 -266.000000 65014.000000 60 29 1
269.000000 -266.000000 65013.000000 45 18 1
270.000000 -266.000000 65014.000000 41 19 1
271.000000 -266.000000 65014.000000 38 12 1
272.000000 -266.000000 65014.000000 40 17 1
273.000000 -266.000000 65014.000000 42 14 4
274.000000 -266.000000 65015.000000 50 7 8
275.000000 -266.000000 65015.000000 58 53 24
276.000000 -266.000000 65015.000000 94 94 40
201.000000 -267.000000 65004.000000 122 98 39
202.000000 -267.000000 65004.000000 77 54 1
203.000000 -267.000000 65006.000000 32 7 1
204.000000 -267.000000 65007.000000 36 4 1
205.000000 -267.000000 65008.000000 41 13 1
206.000000 -267.000000 65008.000000 38 11 1
211.000000 -267.000000 65013.000000 11 3 1
212.000000 -267.000000 65013.000000 8 3 1
213.000000 -267.000000 65013.000000 5 9 1
214.000000 -267.000000 65011.000000 11 7 1
215.000000 -267.000000 65012.000000 17 8 1
216.000000 -267.000000 65011.000000 19 5 1
217.000000 -267.000000 65011.000000 21 5 1
218.000000 -267.000000 65011.000000 15 4 1
219.000000 -267.000000 65011.000000 10 3 1
220.000000 -267.000000 65011.000000 7 2 1
221.000000 -267.000000 65011.000000 4 1 1
222.000000 -267.000000 65011.000000 2 1 1
223.000000 -267.000000 65011.000000 1 1 1
224.000000 -267.000000 65011.000000 3 1 1
227.000000 -267.000000 65020.000000 23 4 1
228.000000 -267.000000 65020.000000 28 11 1
229.000000 -267.000000 65022.000000 33 10 1
230.000000 -267.000000 65023.000000 25 4 1
231.000000 -267.000000 65023.000000 18 5 1
232.000000 -267.000000 65023.000000 20 5 1
233.000000 -267.000000 65023.000000 23 8 1
234.000000 -267.000000 65023.000000 25 13 1
235.000000 -267.000000 65023.000000 27 26 2
236.000000 -267.000000 65021.000000 32 24 3
237.000000 -267.000000 65022.000000 37 23 2
238.000000 -267.000000 65023.000000 35 20 1
239.000000 -267.000000 65023.000000 34 17 1
240.000000 -267.000000 65022.000000 38 21 1
241.000000 -267.000000 65022.000000 42 25 1
242.000000 -267.000000 65021.000000 42 34 1
243.000000 -267.000000 65021.000000 42 41 1
244.000000 -267.000000 65022.000000 29 9 1
245.000000 -267.000000 65022.000000 16 1 1
246.000000 -267.000000 65022.000000 14 1 1
247.000000 -267.000000 65022.000000 12 1 1
248.000000 -267.000000 65022.000000 12 1 1
249.000000 -267.000000 65022.000000 12 1 2
250.000000 -267.000000 65022.000000 16 1 3
251.000000 -267.000000 65022.000000 21 2 2
252.000000 -267.000000 65023.000000 26 2 2
253.000000 -267.000000 65022.000000 32 3 1
254.000000 -267.000000 65022.000000 22 2 1
255.000000 -267.000000 65022.000000 12 2 1
256.000000 -267.000000 65021.000000 10 2 1
257.000000 -267.000000 65021.000000 8 1 1
258.000000 -267.000000 65021.000000 6 1 1
259.000000 -267.000000 65021.000000 5 2 1
260.000000 -267.000000 65013.000000 7 2 1
261.000000 -267.000000 65014.000000 10 2 1
262.000000 -267.000000 65014.000000 14 3 1
263.000000 -267.000000 65014.000000 19 5 1
264.000000 -267.000000 65014.000000 28 23 1
265.000000 -267.000000 65014.000000 37 42 30
266.000000 -267.000000 65015.000000 49 51 60
267.000000 -267.000000 65015.000000 60 60 30
268.000000 -267.000000 65014.000000 50 24 1
269.000000 -267.000000 65014.000000 41 19 1
270.000000 -267.000000 65014.000000 38 19 1
271.000000 -267.000000 65014.000000 36 13 1
272.000000 -267.000000 65015.000000 34 17 1
273.000000 -267.000000 65015.000000 32 14 8
274.000000 -267.000000 65015.000000 51 24 15
275.000000 -267.000000 65016.000000 70 65 22
276.000000 -267.000000 65016.000000 101 105 29
277.000000 -267.000000 65016.000000 133 113 25
278.000000 -267.000000 65016.000000 133 115 21
201.000000 -268.000000 65004.000000 128 115 53
202.000000 -268.000000 65005.000000 93 83 23
203.000000 -268.000000 65007.000000 59 26 12
204.000000 -268.000000 65008.000000 56 5 1
205.000000 -268.000000 65008.000000 54 11 1
206.000000 -268.000000 65009.000000 50 20 1
207.000000 -268.000000 65009.000000 46 17 2
208.000000 -268.000000 65010.000000 37 14 3
209.000000 -268.000000 65010.000000 29 7 2
210.000000 -268.000000 65013.000000 21 5 1
211.000000 -268.000000 65013.000000 14 4 1
212.000000 -268.000000 65013.000000 11 4 1
213.000000 -268.000000 65014.000000 9 9 1
214.000000 -268.000000 65013.000000 15 7 1
215.000000 -268.000000 65013.000000 22 6 7
216.000000 -268.000000 65013.000000 22 5 13
217.000000 -268.000000 65012.000000 22 6 7
218.000000 -268.000000 65012.000000 16 8 1
219.000000 -268.000000 65011.000000 10 3 1
220.000000 -268.000000 65011.000000 6 1 1
221.000000 -268.000000 65010.000000 3 1 1
222.000000 -268.000000 65011.000000 2 1 1
223.000000 -268.000000 65011.000000 1 1 1
224.000000 -268.000000 65011.000000 3 1 1
225.000000 -268.000000 65014.000000 5 1 1
226.000000 -268.000000 65014.000000 12 2 1
227.000000 -268.000000 65020.000000 20 5 1
228.000000 -268.000000 65020.000000 28 13 1
229.000000 -268.000000 65022.000000 36 12 1
230.000000 -268.000000 65023.000000 27 5 1
231.000000 -268.000000 65023.000000 19 5 1
232.000000 -268.000000 65023.000000 24 6 1
233.000000 -268.000000 65023.000000 29 14 1
234.000000 -268.000000 65023.000000 30 21 1
235.000000 -268.000000 65023.000000 31 25 1
236.000000 -268.000000 65022.000000 36 30 2
237.000000 -268.000000 65022.000000 42 27 1
238.000000 -268.000000 65022.000000 40 24 1
239.000000 -268.000000 65023.000000 38 24 1
240.000000 -268.000000 65021.000000 40 24 1
241.000000 -268.000000 65020.000000 42 29 1
242.000000 -268.000000 65020.000000 38 34 1
243.000000 -268.000000 65021.000000 34 28 1
244.000000 -268.000000 65021.000000 24 7 1
245.000000 -268.000000 65021.000000 15 4 1
246.000000 -268.000000 65020.000000 12 2 1
247.000000 -268.000000 65021.000000 9 1 1
248.000000 -268.000000 65022.000000 8 1 1
249.000000 -268.000000 65022.000000 7 1 1
250.000000 -268.000000 65022.000000 13 1 2
251.000000 -268.000000 65023.000000 20 1 2
252.000000 -268.000000 65023.000000 30 3 1
253.000000 -268.000000 65022.000000 41 3 1
254.000000 -268.000000 65022.000000 26 1 1
255.000000 -268.000000 65021.000000 12 1 1
256.000000 -268.000000 65021.000000 11 2 1
257.000000 -268.000000 65021.000000 10 2 1
258.000000 -268.000000 65021.000000 7 2 1
259.000000 -268.000000 65021.000000 4 2 1
260.000000 -268.000000 65013.000000 5 1 1
261.000000 -268.000000 65014.000000 7 1 1
262.000000 -268.000000 65014.000000 7 2 1
263.000000 -268.000000 65014.000000 7 1 1
264.000000 -268.000000 65014.000000 14 1 1
265.000000 -268.000000 65014.000000 21 7 21
266.000000 -268.000000 65015.000000 33 13 40
267.000000 -268.000000 65015.000000 45 16 20
268.000000 -268.000000 65014.000000 41 19 1
269.000000 -268.000000 65013.000000 37 19 1
270.000000 -268.000000 65014.000000 35 20 1
271.000000 -268.000000 65014.000000 34 15 1
272.000000 -268.000000 65015.000000 28 17 1
273.000000 -268.000000 65015.000000 22 10 4
274.000000 -268.000000 65016.000000 52 41 8
275.000000 -268.000000 65016.000000 82 75 25
276.000000 -268.000000 65017.000000 109 116 42
277.000000 -268.000000 65017.000000 136 115 38
278.000000 -268.000000 65016.000000 135 123 34
202.000000 -269.000000 65007.000000 109 95 46
203.000000 -269.000000 65007.000000 86 45 23
204.000000 -269.000000 65008.000000 70 5 1
205.000000 -269.000000 65008.000000 55 10 1
206.000000 -269.000000 65009.000000 53 27 2
207.000000 -269.000000 65009.000000 51 41 3
208.000000 -269.000000 65011.000000 41 20 5
209.000000 -269.000000 65011.000000 31 9 3
210.000000 -269.000000 65013.000000 23 5 1
211.000000 -269.000000 65013.000000 15 7 1
212.000000 -269.000000 65014.000000 14 8 1
213.000000 -269.000000 65014.000000 13 9 1
214.000000 -269.000000 65013.000000 17 10 1
215.000000 -269.000000 65013.000000 22 11 13
216.000000 -269.000000 65013.000000 26 10 26
217.000000 -269.000000 65013.000000 31 10 13
218.000000 -269.000000 65013.000000 20 7 1
219.000000 -269.000000 65011.000000 8 4 1
220.000000 -269.000000 65011.000000 5 1 1
221.000000 -269.000000 65011.000000 2 1 1
222.000000 -269.000000 65011.000000 2 1 1
223.000000 -269.000000 65011.000000 1 1 1
224.000000 -269.000000 65013.000000 3 1 1
225.000000 -269.000000 65014.000000 4 1 1
226.000000 -269.000000 65020.000000 12 2 1
227.000000 -269.000000 65021.000000 21 6 1
228.000000 -269.000000 65021.000000 31 12 2
229.000000 -269.000000 65022.000000 41 14 1
230.000000 -269.000000 65023.000000 27 9 1
231.000000 -269.000000 65023.000000 13 9 1
232.000000 -269.000000 65023.000000 23 15 1
233.000000 -269.000000 65023.000000 32 21 1
234.000000 -269.000000 65022.000000 33 21 1
235.000000 -269.000000 65022.000000 35 24 1
236.000000 -269.000000 65021.000000 36 19 1
237.000000 -269.000000 65022.000000 37 14 1
238.000000 -269.000000 65022.000000 35 13 1
239.000000 -269.000000 65022.000000 32 12 1
240.000000 -269.000000 65022.000000 33 13 1
241.000000 -269.000000 65021.000000 34 14 1
242.000000 -269.000000 65021.000000 33 15 1
243.000000 -269.000000 65021.000000 33 16 1
244.000000 -269.000000 65022.000000 25 8 1
245.000000 -269.000000 65021.000000 18 7 1
246.000000 -269.000000 65021.000000 13 2 1
247.000000 -269.000000 65021.000000 9 3 1
248.000000 -269.000000 65023.000000 9 2 1
249.000000 -269.000000 65022.000000 9 2 1
250.000000 -269.000000 65022.000000 14 1 2
251.000000 -269.000000 65023.000000 18 1 1
252.000000 -269.000000 65023.000000 23 3 1
253.000000 -269.000000 65022.000000 29 3 1
254.000000 -269.000000 65022.000000 21 1 1
255.000000 -269.000000 65021.000000 14 1 1
256.000000 -269.000000 65021.000000 13 2 1
257.000000 -269.000000 65021.000000 11 3 1
258.000000 -269.000000 65021.000000 8 2 1
259.000000 -269.000000 65021.000000 5 2 1
260.000000 -269.000000 65013.000000 7 1 1
261.000000 -269.000000 65014.000000 9 1 1
262.000000 -269.000000 65013.000000 6 1 1
263.000000 -269.000000 65013.000000 4 1 1
264.000000 -269.000000 65014.000000 8 1 2
265.000000 -269.000000 65014.000000 13 1 11
266.000000 -269.000000 65015.000000 20 3 21
267.000000 -269.000000 65015.000000 28 6 11
268.000000 -269.000000 65014.000000 26 8 1
269.000000 -269.000000 65013.000000 24 10 1
270.000000 -269.000000 65014.000000 25 10 1
271.000000 -269.000000 65015.000000 26 10 1
272.000000 -269.000000 65015.000000 20 8 1
273.000000 -269.000000 65016.000000 15 7 1
274.000000 -269.000000 65016.000000 45 26 1
275.000000 -269.000000 65017.000000 75 85 28
276.000000 -269.000000 65017.000000 106 116 56
277.000000 -269.000000 65017.000000 137 117 52
202.000000 -270.000000 65008.000000 125 107 62
203.000000 -270.000000 65008.000000 113 66 31
204.000000 -270.000000 65009.000000 84 6 1
205.000000 -270.000000 65009.000000 56 22 1
206.000000 -270.000000 65009.000000 56 35 1
207.000000 -270.000000 65011.000000 56 30 2
208.000000 -270.000000 65011.000000 45 26 4
209.000000 -270.000000 65011.000000 34 9 2
210.000000 -270.000000 65013.000000 25 5 1
211.000000 -270.000000 65013.000000 17 6 1
212.000000 -270.000000 65013.000000 17 9 1
213.000000 -270.000000 65013.000000 17 10 1
214.000000 -270.000000 65013.000000 19 12 1
215.000000 -270.000000 65013.000000 22 11 7
216.000000 -270.000000 65013.000000 31 10 13
217.000000 -270.000000 65013.000000 41 8 7
218.000000 -270.000000 65012.000000 24 7 1
219.000000 -270.000000 65011.000000 7 3 1
220.000000 -270.000000 65011.000000 4 2 1
221.000000 -270.000000 65012.000000 2 1 1
222.000000 -270.000000 65012.000000 2 1 1
223.000000 -270.000000 65013.000000 2 1 1
224.000000 -270.000000 65013.000000 3 1 1
225.000000 -270.000000 65014.000000 4 1 1
226.000000 -270.000000 65020.000000 13 2 1
227.000000 -270.000000 65020.000000 22 7 1
228.000000 -270.000000 65021.000000 34 11 2
229.000000 -270.000000 65022.000000 46 12 1
230.000000 -270.000000 65023.000000 27 10 1
231.000000 -270.000000 65023.000000 8 11 1
232.000000 -270.000000 65023.000000 22 21 1
233.000000 -270.000000 65023.000000 36 21 1
234.000000 -270.000000 65023.000000 37 21 1
235.000000 -270.000000 65022.000000 39 27 1
236.000000 -270.000000 65020.000000 36 14 1
237.000000 -270.000000 65020.000000 33 13 1
238.000000 -270.000000 65020.000000 30 5 2
239.000000 -270.000000 65022.000000 27 5 2
240.000000 -270.000000 65022.000000 27 5 3
241.000000 -270.000000 65020.000000 27 8 3
242.000000 -270.000000 65021.000000 29 12 4
243.000000 -270.000000 65022.000000 32 15 2
244.000000 -270.000000 65022.000000 26 10 1
245.000000 -270.000000 65022.000000 21 7 1
246.000000 -270.000000 65022.000000 15 2 1
247.000000 -270.000000 65023.000000 10 2 1
248.000000 -270.000000 65023.000000 11 3 1
249.000000 -270.000000 65022.000000 12 2 3
250.000000 -270.000000 65022.000000 14 1 5
251.000000 -270.000000 65023.000000 17 2 3
252.000000 -270.000000 65023.000000 17 3 1
253.000000 -270.000000 65023.000000 17 2 1
254.000000 -270.000000 65022.000000 17 2 1
255.000000 -270.000000 65021.000000 17 2 1
256.000000 -270.000000 65021.000000 15 2 1
257.000000 -270.000000 65021.000000 13 3 1
258.000000 -270.000000 65021.000000 10 3 1
259.000000 -270.000000 65021.000000 7 2 1
260.000000 -270.000000 65016.000000 9 1 1
261.000000 -270.000000 65016.000000 11 1 1
262.000000 -270.000000 65016.000000 6 1 1
263.000000 -270.000000 65014.000000 1 1 1
264.000000 -270.000000 65015.000000 3 1 1
265.000000 -270.000000 65016.000000 5 1 6
266.000000 -270.000000 65017.000000 8 1 11
267.000000 -270.000000 65016.000000 11 1 6
268.000000 -270.000000 65014.000000 11 2 1
269.000000 -270.000000 65014.000000 12 2 1
270.000000 -270.000000 65015.000000 15 3 1
271.000000 -270.000000 65015.000000 18 5 1
272.000000 -270.000000 65015.000000 13 8 1
273.000000 -270.000000 65016.000000 9 7 1
274.000000 -270.000000 65016.000000 39 11 1
275.000000 -270.000000 65017.000000 69 73 32
276.000000 -270.000000 65017.000000 104 116 64
277.000000 -270.000000 65017.000000 139 117 62
202.000000 -271.000000 65008.000000 128 112 78
203.000000 -271.000000 65008.000000 122 88 39
204.000000 -271.000000 65009.000000 90 47 1
205.000000 -271.000000 65009.000000 59 34 1
206.000000 -271.000000 65009.000000 57 32 1
207.000000 -271.000000 65012.000000 54 28 2
208.000000 -271.000000 65012.000000 43 18 3
209.000000 -271.000000 65013.000000 32 9 2
210.000000 -271.000000 65013.000000 26 5 1
211.000000 -271.000000 65013.000000 21 6 1
212.000000 -271.000000 65013.000000 19 11 1
213.000000 -271.000000 65013.000000 17 14 1
214.000000 -271.000000 65013.000000 19 10 1
215.000000 -271.000000 65013.000000 21 7 1
216.000000 -271.000000 65013.000000 24 9 1
217.000000 -271.000000 65013.000000 27 2 1
218.000000 -271.000000 65012.000000 16 2 1
219.000000 -271.000000 65011.000000 5 2 1
220.000000 -271.000000 65010.000000 3 2 1
221.000000 -271.000000 65011.000000 2 1 1
222.000000 -271.000000 65012.000000 1 1 1
223.000000 -271.000000 65013.000000 1 2 1
224.000000 -271.000000 65014.000000 2 2 1
225.000000 -271.000000 65014.000000 3 2 1
226.000000 -271.000000 65020.000000 10 3 1
227.000000 -271.000000 65020.000000 18 9 1
228.000000 -271.000000 65021.000000 27 10 2
229.000000 -271.000000 65022.000000 37 15 1
230.000000 -271.000000 65023.000000 28 14 1
231.000000 -271.000000 65023.000000 19 14 1
232.000000 -271.000000 65023.000000 35 21 1
233.000000 -271.000000 65023.000000 52 28 1
234.000000 -271.000000 65023.000000 48 29 1
235.000000 -271.000000 65022.000000 44 30 1
236.000000 -271.000000 65020.000000 38 21 1
237.000000 -271.000000 65020.000000 32 12 2
238.000000 -271.000000 65020.000000 23 4 4
239.000000 -271.000000 65022.000000 14 1 4
240.000000 -271.000000 65022.000000 17 3 5
241.000000 -271.000000 65022.000000 20 6 6
242.000000 -271.000000 65022.000000 29 9 8
243.000000 -271.000000 65022.000000 38 15 4
244.000000 -271.000000 65022.000000 31 10 1
245.000000 -271.000000 65021.000000 25 7 1
246.000000 -271.000000 65022.000000 18 6 1
247.000000 -271.000000 65022.000000 11 6 1
248.000000 -271.000000 65023.000000 14 2 1
249.000000 -271.000000 65022.000000 16 3 5
250.000000 -271.000000 65023.000000 16 3 9
251.000000 -271.000000 65023.000000 17 4 5
252.000000 -271.000000 65023.000000 16 3 1
253.000000 -271.000000 65023.000000 15 8 1
254.000000 -271.000000 65023.000000 16 6 1
255.000000 -271.000000 65021.000000 17 5 1
256.000000 -271.000000 65021.000000 18 4 1
257.000000 -271.000000 65022.000000 19 3 1
258.000000 -271.000000 65022.000000 11 3 1
259.000000 -271.000000 65021.000000 4 3 1
260.000000 -271.000000 65016.000000 10 5 1
261.000000 -271.000000 65016.000000 16 7 1
262.000000 -271.000000 65017.000000 13 5 1
263.000000 -271.000000 65016.000000 10 3 1
264.000000 -271.000000 65016.000000 11 2 1
265.000000 -271.000000 65016.000000 12 1 1
266.000000 -271.000000 65017.000000 11 1 1
267.000000 -271.000000 65017.000000 11 2 1
268.000000 -271.000000 65015.000000 9 2 1
269.000000 -271.000000 65014.000000 8 3 1
270.000000 -271.000000 65015.000000 12 3 1
271.000000 -271.000000 65015.000000 16 3 1
272.000000 -271.000000 65014.000000 11 3 1
273.000000 -271.000000 65015.000000 6 4 1
274.000000 -271.000000 65016.000000 29 6 1
275.000000 -271.000000 65016.000000 53 61 36
276.000000 -271.000000 65016.000000 65 80 72
277.000000 -271.000000 65017.000000 77 99 73
203.000000 -272.000000 65009.000000 131 103 39
204.000000 -272.000000 65009.000000 97 60 1
205.000000 -272.000000 65009.000000 63 47 3
206.000000 -272.000000 65010.000000 58 30 5
207.000000 -272.000000 65013.000000 53 23 3
208.000000 -272.000000 65013.000000 41 11 2
209.000000 -272.000000 65013.000000 30 10 1
210.000000 -272.000000 65013.000000 28 5 1
211.000000 -272.000000 65013.000000 26 9 1
212.000000 -272.000000 65013.000000 21 14 1
213.000000 -272.000000 65014.000000 17 13 1
214.000000 -272.000000 65013.000000 18 9 1
215.000000 -272.000000 65013.000000 20 8 1
216.000000 -272.000000 65013.000000 16 8 1
217.000000 -272.000000 65013.000000 13 2 1
218.000000 -272.000000 65011.000000 8 1 1
219.000000 -272.000000 65010.000000 4 2 1
220.000000 -272.000000 65010.000000 3 2 1
221.000000 -272.000000 65011.000000 2 1 1
222.000000 -272.000000 65011.000000 1 2 1
223.000000 -272.000000 65014.000000 1 2 1
224.000000 -272.000000 65016.000000 2 2 1
225.000000 -272.000000 65016.000000 3 2 1
226.000000 -272.000000 65020.000000 8 4 2
227.000000 -272.000000 65020.000000 14 6 1
228.000000 -272.000000 65020.000000 21 10 1
229.000000 -272.000000 65021.000000 29 15 1
230.000000 -272.000000 65023.000000 29 13 1
231.000000 -272.000000 65023.000000 30 11 1
232.000000 -272.000000 65023.000000 49 21 1
237.000000 -272.000000 65020.000000 31 14 2
238.000000 -272.000000 65023.000000 16 3 2
239.000000 -272.000000 65023.000000 2 1 2
240.000000 -272.000000 65023.000000 7 1 3
241.000000 -272.000000 65029.000000 13 3 12
242.000000 -272.000000 65029.000000 28 7 21
243.000000 -272.000000 65029.000000 44 8 11
244.000000 -272.000000 65021.000000 36 10 1
245.000000 -272.000000 65021.000000 29 10 1
246.000000 -272.000000 65022.000000 21 10 1
247.000000 -272.000000 65022.000000 13 6 1
248.000000 -272.000000 65023.000000 17 2 1
249.000000 -272.000000 65023.000000 21 4 3
250.000000 -272.000000 65023.000000 19 6 5
251.000000 -272.000000 65023.000000 17 4 3
252.000000 -272.000000 65023.000000 15 3 1
253.000000 -272.000000 65023.000000 14 6 1
254.000000 -272.000000 65023.000000 16 8 1
255.000000 -272.000000 65023.000000 18 9 1
256.000000 -272.000000 65021.000000 21 10 1
257.000000 -272.000000 65022.000000 25 6 1
258.000000 -272.000000 65022.000000 13 3 1
261.000000 -272.000000 65016.000000 21 9 1
262.000000 -272.000000 65017.000000 20 10 1
263.000000 -272.000000 65016.000000 20 9 1
264.000000 -272.000000 65016.000000 19 8 1
265.000000 -272.000000 65016.000000 19 5 1
266.000000 -272.000000 65017.000000 15 2 1
267.000000 -272.000000 65017.000000 12 1 1
268.000000 -272.000000 65015.000000 8 1 1
269.000000 -272.000000 65014.000000 4 1 1
270.000000 -272.000000 65014.000000 9 2 1
271.000000 -272.000000 65015.000000 15 3 1
272.000000 -272.000000 65014.000000 9 3 1
273.000000 -272.000000 65015.000000 3 2 1
274.000000 -272.000000 65015.000000 20 2 1
275.000000 -272.000000 65015.000000 38 9 18
276.000000 -272.000000 65015.000000 26 17 36
203.000000 -273.000000 65009.000000 135 118 38
204.000000 -273.000000 65009.000000 103 74 1
205.000000 -273.000000 65010.000000 71 60 5
206.000000 -273.000000 65011.000000 61 25 10
207.000000 -273.000000 65013.000000 51 18 5
208.000000 -273.000000 65013.000000 44 15 1
209.000000 -273.000000 65013.000000 37 12 1
210.000000 -273.000000 65013.000000 33 12 1
211.000000 -273.000000 65013.000000 29 13 1
212.000000 -273.000000 65014.000000 22 12 1
213.000000 -273.000000 65014.000000 16 12 1
214.000000 -273.000000 65014.000000 17 11 1
215.000000 -273.000000 65013.000000 19 11 1
216.000000 -273.000000 65013.000000 15 8 1
217.000000 -273.000000 65013.000000 11 2 1
218.000000 -273.000000 65012.000000 7 2 1
219.000000 -273.000000 65010.000000 3 2 1
220.000000 -273.000000 65010.000000 2 1 1
221.000000 -273.000000 65011.000000 2 1 1
222.000000 -273.000000 65011.000000 1 2 1
223.000000 -273.000000 65011.000000 1 2 1
224.000000 -273.000000 65017.000000 3 2 1
225.000000 -273.000000 65017.000000 5 2 2
226.000000 -273.000000 65018.000000 11 3 3
227.000000 -273.000000 65018.000000 18 4 2
228.000000 -273.000000 65020.000000 24 9 1
229.000000 -273.000000 65020.000000 31 15 1
230.000000 -273.000000 65022.000000 31 10 1
231.000000 -273.000000 65022.000000 32 8 1
238.000000 -273.000000 65023.000000 15 3 1
239.000000 -273.000000 65023.000000 5 2 1
240.000000 -273.000000 65023.000000 8 1 1
241.000000 -273.000000 65029.000000 11 1 17
242.000000 -273.000000 65029.000000 23 4 34
243.000000 -273.000000 65029.000000 34 5 17
244.000000 -273.000000 65029.000000 31 11 1
245.000000 -273.000000 65029.000000 29 12 1
246.000000 -273.000000 65022.000000 24 9 1
247.000000 -273.000000 65021.000000 19 7 1
248.000000 -273.000000 65021.000000 27 8 1
249.000000 -273.000000 65023.000000 36 9 1
250.000000 -273.000000 65023.000000 28 5 1
251.000000 -273.000000 65024.000000 20 5 1
252.000000 -273.000000 65024.000000 16 3 1
253.000000 -273.000000 65024.000000 12 4 1
254.000000 -273.000000 65023.000000 16 6 1
255.000000 -273.000000 65023.000000 20 9 1
256.000000 -273.000000 65021.000000 26 14 1
257.000000 -273.000000 65022.000000 33 20 1
258.000000 -273.000000 65022.000000 25 13 1
270.000000 -273.000000 65014.000000 18 5 1
271.000000 -273.000000 65015.000000 22 4 1
272.000000 -273.000000 65009.000000 16 5 1
273.000000 -273.000000 65009.000000 10 7 1
274.000000 -273.000000 65009.000000 19 6 1
275.000000 -273.000000 65015.000000 29 5 1
276.000000 -273.000000 65015.000000 25 3 1
205.000000 -274.000000 65012.000000 80 66 25
206.000000 -274.000000 65013.000000 65 20 9
207.000000 -274.000000 65013.000000 50 19 6
208.000000 -274.000000 65014.000000 47 19 2
209.000000 -274.000000 65014.000000 45 16 1
210.000000 -274.000000 65014.000000 39 14 1
211.000000 -274.000000 65013.000000 33 11 1
212.000000 -274.000000 65014.000000 24 10 1
213.000000 -274.000000 65014.000000 15 10 1
214.000000 -274.000000 65014.000000 16 14 1
215.000000 -274.000000 65013.000000 18 11 1
216.000000 -274.000000 65013.000000 13 9 1
217.000000 -274.000000 65013.000000 9 2 1
218.000000 -274.000000 65012.000000 5 3 1
219.000000 -274.000000 65009.000000 2 1 1
220.000000 -274.000000 65009.000000 2 1 1
221.000000 -274.000000 65009.000000 2 1 1
222.000000 -274.000000 65009.000000 2 3 1
223.000000 -274.000000 65009.000000 2 2 2
224.000000 -274.000000 65017.000000 5 2 3
225.000000 -274.000000 65017.000000 8 2 3
226.000000 -274.000000 65019.000000 15 3 3
227.000000 -274.000000 65019.000000 22 6 2
228.000000 -274.000000 65020.000000 28 9 1
229.000000 -274.000000 65020.000000 34 8 1
230.000000 -274.000000 65020.000000 34 8 1
231.000000 -274.000000 65022.000000 34 8 1
240.000000 -274.000000 65026.000000 9 1 1
241.000000 -274.000000 65029.000000 10 1 9
242.000000 -274.000000 65029.000000 17 3 17
243.000000 -274.000000 65029.000000 25 7 9
244.000000 -274.000000 65029.000000 27 12 1
245.000000 -274.000000 65029.000000 29 12 1
247.000000 -274.000000 65021.000000 25 7 13
248.000000 -274.000000 65021.000000 38 7 25
249.000000 -274.000000 65023.000000 51 9 13
250.000000 -274.000000 65024.000000 37 4 1
251.000000 -274.000000 65024.000000 23 3 1
252.000000 -274.000000 65024.000000 16 2 1
253.000000 -274.000000 65024.000000 10 2 1
254.000000 -274.000000 65023.000000 16 3 1
255.000000 -274.000000 65023.000000 22 7 1
256.000000 -274.000000 65023.000000 32 26 1
257.000000 -274.000000 65023.000000 42 20 1
258.000000 -274.000000 65023.000000 38 19 1
270.000000 -274.000000 65009.000000 26 10 1
271.000000 -274.000000 65009.000000 30 10 1
272.000000 -274.000000 65009.000000 23 10 1
273.000000 -274.000000 65009.000000 17 8 1
274.000000 -274.000000 65008.000000 19 6 1
275.000000 -274.000000 65008.000000 21 3 1
276.000000 -274.000000 65008.000000 23 1 1
205.000000 -275.000000 65013.000000 108 72 45
206.000000 -275.000000 65014.000000 80 43 9
207.000000 -275.000000 65014.000000 52 11 6
208.000000 -275.000000 65014.000000 47 15 4
209.000000 -275.000000 65014.000000 43 19 2
