ply
    format ascii 1.0
    element vertex 7625
    property float x
    property float y
    property float z
    property uchar red
    property uchar green
    property uchar blue
    end_header
240.000000 -214.000000 65009.000000 139 111 45
241.000000 -214.000000 65009.000000 141 101 36
242.000000 -214.000000 65009.000000 135 92 26
243.000000 -214.000000 65006.000000 129 87 29
244.000000 -214.000000 65004.000000 131 83 33
245.000000 -214.000000 65004.000000 133 85 17
246.000000 -214.000000 65003.000000 131 103 1
247.000000 -214.000000 65003.000000 129 100 11
248.000000 -214.000000 65003.000000 136 98 21
249.000000 -214.000000 65003.000000 143 98 13
250.000000 -214.000000 65003.000000 118 99 6
251.000000 -214.000000 65003.000000 93 85 4
252.000000 -214.000000 65003.000000 97 80 3
253.000000 -214.000000 65016.000000 101 71 8
254.000000 -214.000000 65017.000000 79 47 13
255.000000 -214.000000 65016.000000 57 45 7
256.000000 -214.000000 65016.000000 65 44 1
257.000000 -214.000000 65017.000000 74 46 6
258.000000 -214.000000 65017.000000 95 90 10
261.000000 -214.000000 65006.000000 111 88 27
262.000000 -214.000000 65007.000000 104 77 8
263.000000 -214.000000 65008.000000 98 75 10
264.000000 -214.000000 65009.000000 93 73 12
265.000000 -214.000000 65009.000000 89 75 19
266.000000 -214.000000 65010.000000 100 78 26
267.000000 -214.000000 65010.000000 111 82 23
268.000000 -214.000000 65010.000000 118 86 20
269.000000 -214.000000 65009.000000 126 104 49
270.000000 -214.000000 65009.000000 131 114 78
223.000000 -215.000000 65004.000000 138 114 89
224.000000 -215.000000 65004.000000 132 110 77
225.000000 -215.000000 65004.000000 127 106 52
226.000000 -215.000000 65006.000000 118 55 28
227.000000 -215.000000 65006.000000 109 49 14
228.000000 -215.000000 65007.000000 121 97 1
229.000000 -215.000000 65007.000000 134 119 50
230.000000 -215.000000 65009.000000 146 128 100
231.000000 -215.000000 65009.000000 159 141 77
232.000000 -215.000000 65009.000000 165 142 54
233.000000 -215.000000 65009.000000 172 150 50
234.000000 -215.000000 65009.000000 170 137 47
235.000000 -215.000000 65009.000000 168 132 58
236.000000 -215.000000 65009.000000 159 121 69
237.000000 -215.000000 65009.000000 151 111 64
238.000000 -215.000000 65009.000000 152 112 59
239.000000 -215.000000 65009.000000 153 113 74
240.000000 -215.000000 65009.000000 151 114 90
241.000000 -215.000000 65009.000000 150 116 65
242.000000 -215.000000 65009.000000 143 99 41
243.000000 -215.000000 65008.000000 136 97 29
244.000000 -215.000000 65005.000000 134 96 17
245.000000 -215.000000 65005.000000 132 95 9
246.000000 -215.000000 65004.000000 124 98 1
247.000000 -215.000000 65004.000000 117 102 20
248.000000 -215.000000 65004.000000 118 100 39
249.000000 -215.000000 65004.000000 119 99 20
250.000000 -215.000000 65003.000000 99 87 2
251.000000 -215.000000 65003.000000 79 76 1
252.000000 -215.000000 65003.000000 85 65 1
253.000000 -215.000000 65016.000000 91 55 9
254.000000 -215.000000 65016.000000 78 46 17
255.000000 -215.000000 65016.000000 65 48 9
256.000000 -215.000000 65016.000000 71 45 1
257.000000 -215.000000 65016.000000 76 55 10
258.000000 -215.000000 65016.000000 97 92 19
261.000000 -215.000000 65007.000000 105 80 8
262.000000 -215.000000 65008.000000 103 79 5
263.000000 -215.000000 65008.000000 101 78 9
264.000000 -215.000000 65009.000000 99 77 13
265.000000 -215.000000 65009.000000 98 76 32
266.000000 -215.000000 65009.000000 112 81 52
267.000000 -215.000000 65009.000000 126 109 45
268.000000 -215.000000 65009.000000 132 112 39
225.000000 -216.000000 65004.000000 132 105 58
226.000000 -216.000000 65006.000000 122 69 36
227.000000 -216.000000 65006.000000 113 63 31
228.000000 -216.000000 65007.000000 132 98 25
229.000000 -216.000000 65009.000000 152 125 55
230.000000 -216.000000 65009.000000 150 125 84
231.000000 -216.000000 65010.000000 148 132 76
232.000000 -216.000000 65010.000000 160 140 69
233.000000 -216.000000 65010.000000 173 139 65
234.000000 -216.000000 65010.000000 170 139 61
235.000000 -216.000000 65010.000000 168 137 63
236.000000 -216.000000 65010.000000 171 136 64
237.000000 -216.000000 65010.000000 174 138 69
238.000000 -216.000000 65010.000000 171 140 74
239.000000 -216.000000 65010.000000 169 137 79
240.000000 -216.000000 65010.000000 164 134 84
241.000000 -216.000000 65010.000000 160 129 65
242.000000 -216.000000 65009.000000 152 107 46
243.000000 -216.000000 65009.000000 144 98 29
244.000000 -216.000000 65007.000000 137 89 13
245.000000 -216.000000 65007.000000 131 105 7
246.000000 -216.000000 65007.000000 118 64 1
247.000000 -216.000000 65004.000000 106 69 14
248.000000 -216.000000 65004.000000 101 74 28
249.000000 -216.000000 65004.000000 96 63 20
253.000000 -216.000000 65015.000000 82 53 13
254.000000 -216.000000 65016.000000 78 46 18
255.000000 -216.000000 65016.000000 74 46 9
256.000000 -216.000000 65016.000000 76 46 1
257.000000 -216.000000 65016.000000 79 51 7
258.000000 -216.000000 65016.000000 99 94 13
259.000000 -216.000000 65013.000000 120 89 10
260.000000 -216.000000 65009.000000 109 79 7
261.000000 -216.000000 65009.000000 99 79 6
262.000000 -216.000000 65009.000000 101 80 6
263.000000 -216.000000 65009.000000 104 79 10
264.000000 -216.000000 65009.000000 105 79 15
265.000000 -216.000000 65010.000000 107 82 35
266.000000 -216.000000 65010.000000 124 85 56
267.000000 -216.000000 65010.000000 141 113 42
268.000000 -216.000000 65009.000000 145 121 29
226.000000 -217.000000 65006.000000 130 81 45
227.000000 -217.000000 65006.000000 126 77 47
228.000000 -217.000000 65009.000000 137 110 50
229.000000 -217.000000 65009.000000 149 132 59
230.000000 -217.000000 65011.000000 147 125 69
231.000000 -217.000000 65011.000000 146 117 76
232.000000 -217.000000 65012.000000 154 130 84
233.000000 -217.000000 65012.000000 163 138 80
234.000000 -217.000000 65012.000000 164 138 76
235.000000 -217.000000 65011.000000 165 137 68
236.000000 -217.000000 65012.000000 169 140 60
237.000000 -217.000000 65012.000000 173 143 75
238.000000 -217.000000 65011.000000 173 140 90
239.000000 -217.000000 65011.000000 173 138 84
240.000000 -217.000000 65011.000000 172 140 78
241.000000 -217.000000 65010.000000 171 142 65
242.000000 -217.000000 65010.000000 168 136 52
243.000000 -217.000000 65010.000000 165 131 30
244.000000 -217.000000 65009.000000 158 123 9
245.000000 -217.000000 65009.000000 150 115 5
246.000000 -217.000000 65009.000000 129 81 1
247.000000 -217.000000 65008.000000 107 70 9
248.000000 -217.000000 65008.000000 106 71 18
253.000000 -217.000000 65016.000000 83 51 18
254.000000 -217.000000 65016.000000 80 48 19
255.000000 -217.000000 65016.000000 78 45 10
256.000000 -217.000000 65016.000000 81 46 1
257.000000 -217.000000 65013.000000 84 48 4
258.000000 -217.000000 65013.000000 97 88 8
259.000000 -217.000000 65013.000000 110 85 5
260.000000 -217.000000 65009.000000 99 79 3
261.000000 -217.000000 65009.000000 89 73 5
262.000000 -217.000000 65010.000000 95 74 7
263.000000 -217.000000 65010.000000 102 75 12
264.000000 -217.000000 65010.000000 112 80 18
265.000000 -217.000000 65010.000000 122 85 39
266.000000 -217.000000 65013.000000 136 101 60
267.000000 -217.000000 65013.000000 150 117 40
268.000000 -217.000000 65013.000000 149 125 20
227.000000 -218.000000 65009.000000 139 108 63
228.000000 -218.000000 65009.000000 142 122 50
229.000000 -218.000000 65011.000000 146 124 60
230.000000 -218.000000 65012.000000 145 126 71
231.000000 -218.000000 65012.000000 145 123 76
232.000000 -218.000000 65013.000000 149 120 82
233.000000 -218.000000 65013.000000 153 137 80
234.000000 -218.000000 65013.000000 158 140 79
235.000000 -218.000000 65013.000000 163 141 81
236.000000 -218.000000 65013.000000 167 143 83
237.000000 -218.000000 65013.000000 172 147 85
238.000000 -218.000000 65012.000000 174 155 88
239.000000 -218.000000 65012.000000 177 156 85
240.000000 -218.000000 65011.000000 180 157 82
241.000000 -218.000000 65011.000000 183 156 80
242.000000 -218.000000 65011.000000 185 156 77
243.000000 -218.000000 65010.000000 187 153 70
244.000000 -218.000000 65009.000000 178 151 62
245.000000 -218.000000 65009.000000 170 138 31
246.000000 -218.000000 65009.000000 139 98 1
247.000000 -218.000000 65009.000000 109 77 8
248.000000 -218.000000 65009.000000 111 79 15
249.000000 -218.000000 65009.000000 113 76 18
250.000000 -218.000000 65009.000000 97 64 21
253.000000 -218.000000 65015.000000 85 52 14
254.000000 -218.000000 65015.000000 83 50 18
255.000000 -218.000000 65016.000000 82 50 17
256.000000 -218.000000 65016.000000 85 50 16
257.000000 -218.000000 65014.000000 89 66 29
258.000000 -218.000000 65013.000000 94 82 43
259.000000 -218.000000 65012.000000 100 88 32
260.000000 -218.000000 65010.000000 89 54 20
261.000000 -218.000000 65010.000000 79 61 12
262.000000 -218.000000 65011.000000 90 69 4
263.000000 -218.000000 65012.000000 101 75 20
264.000000 -218.000000 65012.000000 119 104 37
265.000000 -218.000000 65012.000000 138 111 53
266.000000 -218.000000 65013.000000 149 118 70
267.000000 -218.000000 65013.000000 160 117 47
268.000000 -218.000000 65013.000000 152 130 25
269.000000 -218.000000 65013.000000 145 130 42
227.000000 -219.000000 65009.000000 144 108 79
228.000000 -219.000000 65010.000000 143 114 50
229.000000 -219.000000 65011.000000 141 120 62
230.000000 -219.000000 65013.000000 141 123 74
231.000000 -219.000000 65013.000000 141 127 77
232.000000 -219.000000 65013.000000 148 132 80
233.000000 -219.000000 65013.000000 156 137 81
234.000000 -219.000000 65013.000000 158 139 83
235.000000 -219.000000 65013.000000 160 141 94
236.000000 -219.000000 65013.000000 165 138 106
237.000000 -219.000000 65013.000000 169 152 96
238.000000 -219.000000 65013.000000 173 154 87
239.000000 -219.000000 65013.000000 177 155 87
240.000000 -219.000000 65012.000000 180 157 87
241.000000 -219.000000 65012.000000 183 150 95
242.000000 -219.000000 65012.000000 185 155 103
243.000000 -219.000000 65011.000000 187 157 109
244.000000 -219.000000 65010.000000 186 159 116
245.000000 -219.000000 65010.000000 184 161 58
246.000000 -219.000000 65009.000000 151 119 1
247.000000 -219.000000 65009.000000 117 85 6
248.000000 -219.000000 65009.000000 113 78 12
249.000000 -219.000000 65010.000000 109 80 16
250.000000 -219.000000 65010.000000 97 70 21
251.000000 -219.000000 65010.000000 86 64 11
253.000000 -219.000000 65015.000000 91 65 9
254.000000 -219.000000 65016.000000 92 57 18
255.000000 -219.000000 65016.000000 94 49 24
256.000000 -219.000000 65016.000000 94 67 31
257.000000 -219.000000 65013.000000 95 84 55
258.000000 -219.000000 65013.000000 97 82 79
259.000000 -219.000000 65012.000000 99 92 58
260.000000 -219.000000 65011.000000 91 54 38
261.000000 -219.000000 65011.000000 83 49 19
262.000000 -219.000000 65012.000000 99 76 1
263.000000 -219.000000 65012.000000 114 76 28
264.000000 -219.000000 65013.000000 126 109 56
265.000000 -219.000000 65013.000000 138 115 68
266.000000 -219.000000 65013.000000 144 117 81
267.000000 -219.000000 65013.000000 151 118 55
268.000000 -219.000000 65013.000000 145 121 30
269.000000 -219.000000 65013.000000 139 125 43
270.000000 -219.000000 65013.000000 129 113 56
228.000000 -220.000000 65012.000000 143 107 57
229.000000 -220.000000 65012.000000 137 110 66
230.000000 -220.000000 65013.000000 137 113 75
231.000000 -220.000000 65013.000000 137 119 70
232.000000 -220.000000 65013.000000 148 134 64
233.000000 -220.000000 65013.000000 160 140 63
234.000000 -220.000000 65013.000000 159 145 62
235.000000 -220.000000 65013.000000 158 139 79
236.000000 -220.000000 65013.000000 162 134 97
237.000000 -220.000000 65013.000000 167 144 87
238.000000 -220.000000 65013.000000 172 154 78
239.000000 -220.000000 65013.000000 178 156 83
240.000000 -220.000000 65013.000000 180 158 88
241.000000 -220.000000 65013.000000 183 154 96
242.000000 -220.000000 65013.000000 185 154 104
243.000000 -220.000000 65012.000000 188 163 115
244.000000 -220.000000 65012.000000 193 172 126
245.000000 -220.000000 65011.000000 199 168 87
246.000000 -220.000000 65010.000000 162 141 48
247.000000 -220.000000 65009.000000 126 92 27
248.000000 -220.000000 65010.000000 115 77 7
249.000000 -220.000000 65010.000000 105 77 9
250.000000 -220.000000 65010.000000 98 77 12
251.000000 -220.000000 65011.000000 92 74 7
252.000000 -220.000000 65011.000000 94 71 2
253.000000 -220.000000 65015.000000 97 68 6
254.000000 -220.000000 65016.000000 102 79 11
255.000000 -220.000000 65016.000000 107 82 20
256.000000 -220.000000 65016.000000 104 85 29
257.000000 -220.000000 65014.000000 101 84 36
258.000000 -220.000000 65013.000000 99 83 43
259.000000 -220.000000 65013.000000 98 79 34
260.000000 -220.000000 65012.000000 93 54 25
261.000000 -220.000000 65012.000000 88 50 13
262.000000 -220.000000 65012.000000 108 84 1
263.000000 -220.000000 65013.000000 128 83 28
264.000000 -220.000000 65013.000000 133 114 56
265.000000 -220.000000 65013.000000 138 115 60
266.000000 -220.000000 65013.000000 140 116 64
267.000000 -220.000000 65013.000000 142 115 40
268.000000 -220.000000 65013.000000 138 115 16
269.000000 -220.000000 65013.000000 134 114 33
270.000000 -220.000000 65013.000000 114 81 50
227.000000 -221.000000 65013.000000 145 105 47
228.000000 -221.000000 65013.000000 141 108 64
229.000000 -221.000000 65013.000000 138 111 70
230.000000 -221.000000 65014.000000 137 111 77
231.000000 -221.000000 65014.000000 137 112 63
232.000000 -221.000000 65014.000000 144 126 49
233.000000 -221.000000 65014.000000 152 144 45
234.000000 -221.000000 65014.000000 152 134 41
235.000000 -221.000000 65014.000000 153 125 65
236.000000 -221.000000 65014.000000 158 126 89
237.000000 -221.000000 65014.000000 163 127 79
238.000000 -221.000000 65014.000000 169 148 69
239.000000 -221.000000 65015.000000 176 157 79
240.000000 -221.000000 65015.000000 180 155 89
241.000000 -221.000000 65015.000000 184 154 97
242.000000 -221.000000 65013.000000 189 158 105
243.000000 -221.000000 65013.000000 194 169 121
244.000000 -221.000000 65013.000000 195 169 137
245.000000 -221.000000 65012.000000 196 176 116
246.000000 -221.000000 65010.000000 160 138 96
247.000000 -221.000000 65010.000000 125 100 49
248.000000 -221.000000 65010.000000 96 85 2
249.000000 -221.000000 65010.000000 67 70 2
250.000000 -221.000000 65010.000000 73 74 3
251.000000 -221.000000 65010.000000 80 78 3
252.000000 -221.000000 65010.000000 75 74 4
254.000000 -221.000000 65016.000000 74 78 4
255.000000 -221.000000 65017.000000 77 85 15
256.000000 -221.000000 65017.000000 81 81 27
257.000000 -221.000000 65015.000000 86 77 17
258.000000 -221.000000 65014.000000 94 71 7
259.000000 -221.000000 65013.000000 101 66 9
260.000000 -221.000000 65013.000000 97 58 12
261.000000 -221.000000 65013.000000 92 51 6
262.000000 -221.000000 65013.000000 110 86 1
263.000000 -221.000000 65013.000000 128 90 29
264.000000 -221.000000 65013.000000 132 107 57
265.000000 -221.000000 65013.000000 137 126 52
266.000000 -221.000000 65013.000000 139 118 48
267.000000 -221.000000 65015.000000 141 114 25
268.000000 -221.000000 65015.000000 143 120 3
269.000000 -221.000000 65014.000000 146 103 23
270.000000 -221.000000 65014.000000 129 90 44
227.000000 -222.000000 65016.000000 140 109 63
228.000000 -222.000000 65013.000000 139 110 77
229.000000 -222.000000 65013.000000 139 113 73
230.000000 -222.000000 65014.000000 138 115 69
231.000000 -222.000000 65015.000000 137 113 64
232.000000 -222.000000 65015.000000 140 119 60
233.000000 -222.000000 65015.000000 144 117 53
234.000000 -222.000000 65014.000000 146 116 47
235.000000 -222.000000 65014.000000 149 123 65
236.000000 -222.000000 65014.000000 154 123 84
237.000000 -222.000000 65015.000000 159 134 76
238.000000 -222.000000 65015.000000 167 142 68
239.000000 -222.000000 65015.000000 175 148 76
240.000000 -222.000000 65016.000000 180 154 85
241.000000 -222.000000 65016.000000 186 153 96
242.000000 -222.000000 65015.000000 193 163 106
243.000000 -222.000000 65013.000000 201 165 111
244.000000 -222.000000 65013.000000 197 167 116
245.000000 -222.000000 65013.000000 193 151 83
246.000000 -222.000000 65012.000000 158 135 49
247.000000 -222.000000 65011.000000 124 88 27
248.000000 -222.000000 65011.000000 76 37 5
249.000000 -222.000000 65011.000000 29 40 11
250.000000 -222.000000 65011.000000 48 44 16
251.000000 -222.000000 65011.000000 68 39 10
252.000000 -222.000000 65011.000000 56 34 4
254.000000 -222.000000 65017.000000 46 20 4
255.000000 -222.000000 65017.000000 47 30 9
256.000000 -222.000000 65017.000000 59 41 15
257.000000 -222.000000 65016.000000 72 53 9
258.000000 -222.000000 65014.000000 88 65 4
259.000000 -222.000000 65013.000000 105 65 12
260.000000 -222.000000 65013.000000 101 62 21
261.000000 -222.000000 65013.000000 97 55 15
262.000000 -222.000000 65013.000000 113 88 10
263.000000 -222.000000 65013.000000 129 91 30
264.000000 -222.000000 65013.000000 132 101 50
265.000000 -222.000000 65013.000000 136 113 52
266.000000 -222.000000 65014.000000 138 120 53
267.000000 -222.000000 65015.000000 140 122 28
268.000000 -222.000000 65015.000000 149 125 4
269.000000 -222.000000 65014.000000 159 120 17
270.000000 -222.000000 65015.000000 145 115 30
271.000000 -222.000000 65015.000000 132 99 19
272.000000 -222.000000 65013.000000 106 30 8
273.000000 -222.000000 65013.000000 81 72 20
227.000000 -223.000000 65013.000000 142 116 80
228.000000 -223.000000 65013.000000 140 116 91
229.000000 -223.000000 65013.000000 138 116 76
230.000000 -223.000000 65014.000000 136 115 62
231.000000 -223.000000 65015.000000 135 115 66
232.000000 -223.000000 65015.000000 137 113 71
233.000000 -223.000000 65015.000000 139 111 62
234.000000 -223.000000 65015.000000 145 119 54
235.000000 -223.000000 65015.000000 152 122 66
236.000000 -223.000000 65015.000000 154 123 79
237.000000 -223.000000 65016.000000 157 146 73
238.000000 -223.000000 65016.000000 161 142 67
239.000000 -223.000000 65016.000000 165 138 74
240.000000 -223.000000 65016.000000 170 145 82
241.000000 -223.000000 65016.000000 175 152 95
242.000000 -223.000000 65015.000000 179 153 108
243.000000 -223.000000 65014.000000 184 154 102
244.000000 -223.000000 65013.000000 166 143 96
245.000000 -223.000000 65013.000000 148 133 49
246.000000 -223.000000 65011.000000 123 104 3
247.000000 -223.000000 65010.000000 97 76 6
248.000000 -223.000000 65010.000000 59 24 9
249.000000 -223.000000 65010.000000 22 1 19
250.000000 -223.000000 65011.000000 37 12 30
251.000000 -223.000000 65010.000000 52 23 17
252.000000 -223.000000 65010.000000 40 17 4
254.000000 -223.000000 65017.000000 34 10 5
255.000000 -223.000000 65017.000000 40 10 4
256.000000 -223.000000 65017.000000 55 17 3
257.000000 -223.000000 65016.000000 70 25 2
258.000000 -223.000000 65015.000000 88 65 1
259.000000 -223.000000 65014.000000 107 69 15
260.000000 -223.000000 65013.000000 101 64 30
261.000000 -223.000000 65013.000000 95 59 24
262.000000 -223.000000 65013.000000 114 86 19
263.000000 -223.000000 65013.000000 132 92 31
264.000000 -223.000000 65013.000000 137 103 44
265.000000 -223.000000 65014.000000 142 107 51
266.000000 -223.000000 65014.000000 141 118 59
267.000000 -223.000000 65015.000000 139 122 32
268.000000 -223.000000 65014.000000 142 127 5
269.000000 -223.000000 65013.000000 145 132 11
270.000000 -223.000000 65014.000000 134 126 17
271.000000 -223.000000 65013.000000 124 121 9
272.000000 -223.000000 65013.000000 108 45 1
273.000000 -223.000000 65013.000000 92 73 5
227.000000 -224.000000 65016.000000 144 122 69
228.000000 -224.000000 65016.000000 140 135 68
229.000000 -224.000000 65016.000000 137 120 49
230.000000 -224.000000 65016.000000 135 115 31
231.000000 -224.000000 65017.000000 133 112 46
232.000000 -224.000000 65017.000000 134 110 61
233.000000 -224.000000 65017.000000 135 111 61
234.000000 -224.000000 65017.000000 145 127 61
235.000000 -224.000000 65017.000000 155 122 66
236.000000 -224.000000 65017.000000 155 123 71
237.000000 -224.000000 65017.000000 156 124 70
238.000000 -224.000000 65017.000000 156 125 70
239.000000 -224.000000 65017.000000 156 134 76
240.000000 -224.000000 65017.000000 160 136 82
241.000000 -224.000000 65016.000000 164 142 91
242.000000 -224.000000 65016.000000 165 148 101
243.000000 -224.000000 65014.000000 167 130 74
244.000000 -224.000000 65014.000000 135 112 48
245.000000 -224.000000 65013.000000 104 87 25
246.000000 -224.000000 65013.000000 87 62 2
247.000000 -224.000000 65011.000000 71 57 3
248.000000 -224.000000 65011.000000 43 12 5
249.000000 -224.000000 65010.000000 15 2 10
250.000000 -224.000000 65010.000000 26 7 16
251.000000 -224.000000 65010.000000 37 9 9
252.000000 -224.000000 65009.000000 25 12 2
253.000000 -224.000000 65009.000000 13 11 3
255.000000 -224.000000 65017.000000 33 6 2
256.000000 -224.000000 65017.000000 51 21 2
257.000000 -224.000000 65017.000000 69 43 6
258.000000 -224.000000 65016.000000 89 65 10
259.000000 -224.000000 65016.000000 109 65 13
260.000000 -224.000000 65015.000000 101 66 17
261.000000 -224.000000 65015.000000 94 75 20
262.000000 -224.000000 65015.000000 115 85 24
263.000000 -224.000000 65015.000000 136 98 27
264.000000 -224.000000 65015.000000 142 105 31
265.000000 -224.000000 65015.000000 149 109 41
266.000000 -224.000000 65022.000000 144 116 51
267.000000 -224.000000 65022.000000 139 106 32
268.000000 -224.000000 65022.000000 135 96 14
269.000000 -224.000000 65022.000000 131 99 11
270.000000 -224.000000 65014.000000 124 103 9
271.000000 -224.000000 65014.000000 117 101 5
272.000000 -224.000000 65014.000000 110 60 1
273.000000 -224.000000 65013.000000 103 63 12
227.000000 -225.000000 65016.000000 147 129 59
228.000000 -225.000000 65016.000000 137 127 45
229.000000 -225.000000 65017.000000 127 125 23
230.000000 -225.000000 65017.000000 130 117 1
231.000000 -225.000000 65017.000000 132 109 26
232.000000 -225.000000 65017.000000 135 110 51
233.000000 -225.000000 65017.000000 138 111 59
234.000000 -225.000000 65017.000000 145 117 68
235.000000 -225.000000 65017.000000 152 123 65
236.000000 -225.000000 65017.000000 153 122 63
237.000000 -225.000000 65017.000000 154 122 68
238.000000 -225.000000 65017.000000 154 128 73
239.000000 -225.000000 65017.000000 154 131 78
240.000000 -225.000000 65017.000000 154 129 83
241.000000 -225.000000 65017.000000 155 127 88
242.000000 -225.000000 65013.000000 148 121 94
243.000000 -225.000000 65013.000000 141 115 47
244.000000 -225.000000 65013.000000 103 72 1
245.000000 -225.000000 65013.000000 64 28 1
246.000000 -225.000000 65012.000000 56 33 1
247.000000 -225.000000 65010.000000 49 38 1
248.000000 -225.000000 65010.000000 34 6 1
249.000000 -225.000000 65009.000000 20 3 1
250.000000 -225.000000 65010.000000 28 7 2
251.000000 -225.000000 65009.000000 36 9 1
252.000000 -225.000000 65009.000000 28 8 1
253.000000 -225.000000 65009.000000 21 7 1
254.000000 -225.000000 65009.000000 26 5 2
255.000000 -225.000000 65017.000000 31 3 1
256.000000 -225.000000 65017.000000 60 37 1
257.000000 -225.000000 65017.000000 89 84 10
258.000000 -225.000000 65016.000000 108 100 19
259.000000 -225.000000 65016.000000 127 116 11
260.000000 -225.000000 65016.000000 122 106 4
261.000000 -225.000000 65016.000000 118 96 16
262.000000 -225.000000 65017.000000 128 104 29
263.000000 -225.000000 65017.000000 138 112 23
264.000000 -225.000000 65022.000000 136 112 18
265.000000 -225.000000 65022.000000 134 112 31
266.000000 -225.000000 65022.000000 126 103 44
267.000000 -225.000000 65022.000000 118 94 33
268.000000 -225.000000 65022.000000 113 92 23
269.000000 -225.000000 65022.000000 108 91 12
270.000000 -225.000000 65022.000000 107 86 1
271.000000 -225.000000 65014.000000 106 81 1
272.000000 -225.000000 65014.000000 101 55 2
226.000000 -226.000000 65016.000000 146 127 83
227.000000 -226.000000 65016.000000 150 125 68
228.000000 -226.000000 65017.000000 134 123 53
229.000000 -226.000000 65017.000000 118 106 49
230.000000 -226.000000 65017.000000 125 78 46
231.000000 -226.000000 65017.000000 132 107 53
232.000000 -226.000000 65017.000000 137 118 61
233.000000 -226.000000 65017.000000 142 116 67
234.000000 -226.000000 65017.000000 145 114 72
235.000000 -226.000000 65018.000000 149 124 75
236.000000 -226.000000 65018.000000 150 126 79
237.000000 -226.000000 65019.000000 152 128 72
238.000000 -226.000000 65019.000000 152 131 65
239.000000 -226.000000 65019.000000 152 131 64
240.000000 -226.000000 65020.000000 149 119 63
241.000000 -226.000000 65020.000000 146 129 82
242.000000 -226.000000 65013.000000 131 104 102
243.000000 -226.000000 65013.000000 116 98 51
244.000000 -226.000000 65013.000000 70 33 1
245.000000 -226.000000 65013.000000 25 27 1
246.000000 -226.000000 65011.000000 26 7 1
247.000000 -226.000000 65010.000000 27 4 1
248.000000 -226.000000 65009.000000 26 1 1
249.000000 -226.000000 65009.000000 26 2 1
250.000000 -226.000000 65010.000000 30 7 1
251.000000 -226.000000 65009.000000 35 7 1
252.000000 -226.000000 65009.000000 32 8 1
253.000000 -226.000000 65009.000000 30 5 1
254.000000 -226.000000 65009.000000 30 4 2
255.000000 -226.000000 65017.000000 30 3 2
256.000000 -226.000000 65017.000000 70 54 1
257.000000 -226.000000 65017.000000 110 85 6
258.000000 -226.000000 65017.000000 127 121 10
259.000000 -226.000000 65017.000000 145 120 7
260.000000 -226.000000 65017.000000 144 120 4
261.000000 -226.000000 65018.000000 143 118 9
262.000000 -226.000000 65020.000000 142 116 15
263.000000 -226.000000 65021.000000 141 112 12
264.000000 -226.000000 65022.000000 130 114 10
265.000000 -226.000000 65022.000000 120 100 20
266.000000 -226.000000 65023.000000 108 71 30
267.000000 -226.000000 65023.000000 97 62 21
268.000000 -226.000000 65022.000000 91 53 12
269.000000 -226.000000 65022.000000 85 48 8
270.000000 -226.000000 65022.000000 90 44 4
271.000000 -226.000000 65022.000000 95 47 2
272.000000 -226.000000 65022.000000 93 51 1
224.000000 -227.000000 65016.000000 143 118 77
225.000000 -227.000000 65016.000000 145 121 85
226.000000 -227.000000 65017.000000 146 122 93
227.000000 -227.000000 65017.000000 147 124 77
228.000000 -227.000000 65017.000000 140 114 61
229.000000 -227.000000 65017.000000 133 87 76
230.000000 -227.000000 65017.000000 138 96 91
231.000000 -227.000000 65017.000000 144 106 81
232.000000 -227.000000 65018.000000 145 122 72
233.000000 -227.000000 65018.000000 146 124 74
234.000000 -227.000000 65018.000000 148 125 77
235.000000 -227.000000 65020.000000 150 126 86
236.000000 -227.000000 65020.000000 151 127 95
237.000000 -227.000000 65020.000000 151 129 76
238.000000 -227.000000 65020.000000 150 130 57
239.000000 -227.000000 65020.000000 149 131 50
240.000000 -227.000000 65020.000000 146 131 43
241.000000 -227.000000 65020.000000 143 132 77
242.000000 -227.000000 65013.000000 123 101 111
243.000000 -227.000000 65010.000000 102 81 56
244.000000 -227.000000 65010.000000 61 41 1
245.000000 -227.000000 65013.000000 21 26 1
246.000000 -227.000000 65010.000000 17 4 1
247.000000 -227.000000 65009.000000 14 1 1
248.000000 -227.000000 65009.000000 19 1 2
249.000000 -227.000000 65009.000000 23 1 1
250.000000 -227.000000 65010.000000 26 4 1
251.000000 -227.000000 65010.000000 30 6 1
252.000000 -227.000000 65009.000000 25 5 1
253.000000 -227.000000 65009.000000 21 4 2
254.000000 -227.000000 65011.000000 35 3 3
255.000000 -227.000000 65015.000000 49 3 2
256.000000 -227.000000 65017.000000 78 66 2
257.000000 -227.000000 65017.000000 108 86 2
258.000000 -227.000000 65017.000000 115 93 2
259.000000 -227.000000 65018.000000 122 100 3
260.000000 -227.000000 65019.000000 122 103 4
261.000000 -227.000000 65021.000000 122 107 3
262.000000 -227.000000 65021.000000 121 109 2
263.000000 -227.000000 65022.000000 120 112 2
264.000000 -227.000000 65022.000000 116 100 2
265.000000 -227.000000 65023.000000 112 88 9
266.000000 -227.000000 65023.000000 102 70 17
267.000000 -227.000000 65023.000000 92 55 9
268.000000 -227.000000 65023.000000 85 50 1
269.000000 -227.000000 65023.000000 79 46 4
270.000000 -227.000000 65023.000000 83 48 7
271.000000 -227.000000 65023.000000 87 50 4
272.000000 -227.000000 65022.000000 88 52 1
273.000000 -227.000000 65022.000000 88 55 10
224.000000 -228.000000 65016.000000 145 116 73
225.000000 -228.000000 65016.000000 147 121 77
226.000000 -228.000000 65016.000000 146 121 81
227.000000 -228.000000 65017.000000 145 123 64
228.000000 -228.000000 65018.000000 146 106 47
229.000000 -228.000000 65018.000000 148 119 61
230.000000 -228.000000 65019.000000 152 133 75
231.000000 -228.000000 65019.000000 156 130 69
232.000000 -228.000000 65019.000000 153 127 63
233.000000 -228.000000 65019.000000 151 126 69
234.000000 -228.000000 65019.000000 151 126 75
235.000000 -228.000000 65020.000000 152 128 72
236.000000 -228.000000 65020.000000 151 131 70
237.000000 -228.000000 65021.000000 151 129 59
238.000000 -228.000000 65021.000000 149 130 48
239.000000 -228.000000 65021.000000 147 125 54
240.000000 -228.000000 65022.000000 144 121 60
241.000000 -228.000000 65022.000000 141 109 58
243.000000 -228.000000 65010.000000 89 66 28
244.000000 -228.000000 65010.000000 53 49 1
246.000000 -228.000000 65010.000000 9 2 1
247.000000 -228.000000 65009.000000 2 1 1
248.000000 -228.000000 65009.000000 11 1 2
249.000000 -228.000000 65010.000000 21 1 1
250.000000 -228.000000 65010.000000 23 2 1
251.000000 -228.000000 65010.000000 25 2 1
252.000000 -228.000000 65011.000000 18 2 2
253.000000 -228.000000 65011.000000 12 2 4
254.000000 -228.000000 65011.000000 40 17 6
255.000000 -228.000000 65015.000000 68 19 3
256.000000 -228.000000 65017.000000 87 78 1
257.000000 -228.000000 65017.000000 106 76 11
258.000000 -228.000000 65020.000000 102 74 20
259.000000 -228.000000 65021.000000 99 83 19
260.000000 -228.000000 65021.000000 100 92 18
261.000000 -228.000000 65021.000000 101 88 21
262.000000 -228.000000 65022.000000 100 84 24
263.000000 -228.000000 65022.000000 100 84 28
264.000000 -228.000000 65022.000000 102 84 31
265.000000 -228.000000 65023.000000 104 85 28
266.000000 -228.000000 65023.000000 95 69 25
267.000000 -228.000000 65023.000000 87 53 13
268.000000 -228.000000 65022.000000 80 31 1
269.000000 -228.000000 65022.000000 74 38 3
270.000000 -228.000000 65023.000000 77 52 5
271.000000 -228.000000 65022.000000 80 53 5
272.000000 -228.000000 65022.000000 82 54 5
273.000000 -228.000000 65022.000000 85 55 8
224.000000 -229.000000 65016.000000 148 116 69
225.000000 -229.000000 65016.000000 150 121 69
226.000000 -229.000000 65017.000000 153 121 70
227.000000 -229.000000 65017.000000 156 122 52
228.000000 -229.000000 65018.000000 158 129 34
229.000000 -229.000000 65019.000000 159 136 47
230.000000 -229.000000 65019.000000 158 129 60
231.000000 -229.000000 65020.000000 158 127 57
232.000000 -229.000000 65020.000000 155 127 54
233.000000 -229.000000 65020.000000 153 127 64
234.000000 -229.000000 65020.000000 153 129 74
235.000000 -229.000000 65021.000000 152 131 59
236.000000 -229.000000 65021.000000 151 131 45
237.000000 -229.000000 65021.000000 150 129 42
238.000000 -229.000000 65021.000000 148 125 40
239.000000 -229.000000 65021.000000 146 121 59
240.000000 -229.000000 65022.000000 138 110 78
241.000000 -229.000000 65022.000000 130 92 39
246.000000 -229.000000 65010.000000 13 1 1
247.000000 -229.000000 65009.000000 9 1 1
248.000000 -229.000000 65009.000000 19 1 2
249.000000 -229.000000 65010.000000 30 1 1
250.000000 -229.000000 65010.000000 25 2 1
251.000000 -229.000000 65010.000000 21 3 2
252.000000 -229.000000 65011.000000 15 2 3
253.000000 -229.000000 65011.000000 10 1 6
254.000000 -229.000000 65013.000000 38 18 9
255.000000 -229.000000 65015.000000 67 35 5
256.000000 -229.000000 65017.000000 86 77 1
257.000000 -229.000000 65020.000000 105 76 20
258.000000 -229.000000 65021.000000 100 78 39
259.000000 -229.000000 65021.000000 95 80 35
260.000000 -229.000000 65022.000000 96 82 32
261.000000 -229.000000 65022.000000 97 85 39
262.000000 -229.000000 65022.000000 99 80 47
263.000000 -229.000000 65023.000000 101 75 54
264.000000 -229.000000 65023.000000 106 81 61
265.000000 -229.000000 65023.000000 112 82 47
266.000000 -229.000000 65023.000000 100 75 34
267.000000 -229.000000 65023.000000 89 52 17
268.000000 -229.000000 65023.000000 76 41 1
269.000000 -229.000000 65022.000000 63 31 2
270.000000 -229.000000 65023.000000 68 39 4
271.000000 -229.000000 65023.000000 72 47 6
272.000000 -229.000000 65023.000000 77 51 9
273.000000 -229.000000 65023.000000 82 55 6
274.000000 -229.000000 65023.000000 83 56 3
224.000000 -230.000000 65016.000000 152 116 85
225.000000 -230.000000 65016.000000 153 120 78
226.000000 -230.000000 65017.000000 160 125 71
227.000000 -230.000000 65018.000000 168 133 56
228.000000 -230.000000 65019.000000 169 141 42
229.000000 -230.000000 65019.000000 171 138 58
230.000000 -230.000000 65020.000000 165 125 74
231.000000 -230.000000 65020.000000 160 125 66
232.000000 -230.000000 65021.000000 158 126 58
233.000000 -230.000000 65020.000000 156 130 70
234.000000 -230.000000 65021.000000 154 133 82
235.000000 -230.000000 65021.000000 153 132 57
236.000000 -230.000000 65021.000000 151 131 33
237.000000 -230.000000 65022.000000 150 132 33
238.000000 -230.000000 65022.000000 148 116 34
239.000000 -230.000000 65022.000000 146 121 58
240.000000 -230.000000 65023.000000 133 99 82
241.000000 -230.000000 65023.000000 120 86 41
247.000000 -230.000000 65010.000000 17 4 1
248.000000 -230.000000 65010.000000 28 8 2
249.000000 -230.000000 65011.000000 39 2 1
250.000000 -230.000000 65011.000000 28 2 1
251.000000 -230.000000 65011.000000 18 2 1
252.000000 -230.000000 65012.000000 13 2 2
253.000000 -230.000000 65011.000000 8 1 3
254.000000 -230.000000 65013.000000 37 19 5
255.000000 -230.000000 65013.000000 66 35 13
256.000000 -230.000000 65019.000000 85 76 22
257.000000 -230.000000 65020.000000 105 77 28
258.000000 -230.000000 65021.000000 98 79 35
259.000000 -230.000000 65022.000000 92 72 36
260.000000 -230.000000 65022.000000 92 54 38
261.000000 -230.000000 65022.000000 93 59 34
262.000000 -230.000000 65023.000000 97 64 29
263.000000 -230.000000 65023.000000 102 75 41
264.000000 -230.000000 65023.000000 111 78 53
265.000000 -230.000000 65023.000000 121 80 48
266.000000 -230.000000 65023.000000 106 82 43
267.000000 -230.000000 65023.000000 91 63 22
268.000000 -230.000000 65023.000000 72 9 1
269.000000 -230.000000 65022.000000 53 24 2
270.000000 -230.000000 65023.000000 59 32 4
271.000000 -230.000000 65023.000000 65 40 5
272.000000 -230.000000 65023.000000 72 49 6
273.000000 -230.000000 65023.000000 80 54 4
274.000000 -230.000000 65023.000000 80 59 2
275.000000 -230.000000 65023.000000 81 51 1
224.000000 -231.000000 65016.000000 159 123 101
225.000000 -231.000000 65016.000000 164 133 86
226.000000 -231.000000 65017.000000 167 138 72
227.000000 -231.000000 65019.000000 170 143 61
228.000000 -231.000000 65020.000000 170 144 50
229.000000 -231.000000 65020.000000 171 152 69
230.000000 -231.000000 65020.000000 167 146 88
231.000000 -231.000000 65021.000000 164 141 75
232.000000 -231.000000 65021.000000 162 137 63
233.000000 -231.000000 65021.000000 161 133 76
234.000000 -231.000000 65021.000000 156 133 90
235.000000 -231.000000 65021.000000 152 136 55
236.000000 -231.000000 65022.000000 152 135 21
237.000000 -231.000000 65022.000000 152 135 24
238.000000 -231.000000 65022.000000 147 119 28
239.000000 -231.000000 65022.000000 143 122 57
240.000000 -231.000000 65022.000000 125 99 86
241.000000 -231.000000 65023.000000 107 80 43
247.000000 -231.000000 65011.000000 17 8 1
248.000000 -231.000000 65011.000000 23 7 2
249.000000 -231.000000 65013.000000 28 4 1
250.000000 -231.000000 65013.000000 21 2 1
251.000000 -231.000000 65012.000000 14 3 1
252.000000 -231.000000 65013.000000 10 1 1
253.000000 -231.000000 65013.000000 7 1 1
254.000000 -231.000000 65016.000000 41 21 1
255.000000 -231.000000 65017.000000 75 35 22
256.000000 -231.000000 65019.000000 86 82 44
257.000000 -231.000000 65020.000000 97 81 37
258.000000 -231.000000 65021.000000 92 75 31
259.000000 -231.000000 65022.000000 87 65 38
260.000000 -231.000000 65022.000000 89 59 45
261.000000 -231.000000 65023.000000 92 58 28
262.000000 -231.000000 65023.000000 98 71 12
263.000000 -231.000000 65023.000000 104 76 29
264.000000 -231.000000 65023.000000 117 90 46
265.000000 -231.000000 65023.000000 130 105 49
266.000000 -231.000000 65023.000000 112 82 53
267.000000 -231.000000 65023.000000 94 74 27
268.000000 -231.000000 65022.000000 71 17 1
269.000000 -231.000000 65022.000000 49 17 3
270.000000 -231.000000 65022.000000 52 30 5
271.000000 -231.000000 65023.000000 55 22 4
272.000000 -231.000000 65023.000000 62 42 3
273.000000 -231.000000 65023.000000 70 54 2
274.000000 -231.000000 65023.000000 73 49 2
275.000000 -231.000000 65023.000000 76 44 1
224.000000 -232.000000 65016.000000 167 130 98
225.000000 -232.000000 65016.000000 175 141 86
226.000000 -232.000000 65017.000000 173 148 75
227.000000 -232.000000 65017.000000 172 147 62
228.000000 -232.000000 65020.000000 171 147 50
229.000000 -232.000000 65020.000000 171 152 58
230.000000 -232.000000 65020.000000 169 144 67
231.000000 -232.000000 65021.000000 168 142 68
232.000000 -232.000000 65022.000000 167 140 69
233.000000 -232.000000 65021.000000 167 134 74
234.000000 -232.000000 65022.000000 159 134 79
235.000000 -232.000000 65022.000000 151 134 59
236.000000 -232.000000 65022.000000 153 134 39
237.000000 -232.000000 65022.000000 155 131 26
238.000000 -232.000000 65022.000000 147 123 14
239.000000 -232.000000 65022.000000 140 115 46
240.000000 -232.000000 65022.000000 117 99 78
241.000000 -232.000000 65022.000000 94 40 39
247.000000 -232.000000 65011.000000 18 7 5
248.000000 -232.000000 65011.000000 18 7 1
249.000000 -232.000000 65011.000000 18 2 1
250.000000 -232.000000 65011.000000 14 1 1
251.000000 -232.000000 65013.000000 11 1 1
252.000000 -232.000000 65013.000000 8 1 1
253.000000 -232.000000 65014.000000 6 1 1
254.000000 -232.000000 65014.000000 45 23 2
255.000000 -232.000000 65017.000000 84 38 12
256.000000 -232.000000 65020.000000 86 88 23
257.000000 -232.000000 65021.000000 89 80 20
258.000000 -232.000000 65022.000000 86 71 17
259.000000 -232.000000 65022.000000 83 66 22
260.000000 -232.000000 65023.000000 87 61 27
261.000000 -232.000000 65023.000000 91 57 21
262.000000 -232.000000 65023.000000 99 78 15
263.000000 -232.000000 65023.000000 107 70 22
264.000000 -232.000000 65023.000000 123 109 29
265.000000 -232.000000 65023.000000 140 113 41
266.000000 -232.000000 65023.000000 118 83 54
267.000000 -232.000000 65023.000000 97 75 27
268.000000 -232.000000 65023.000000 71 25 1
269.000000 -232.000000 65022.000000 46 26 3
270.000000 -232.000000 65022.000000 46 28 5
271.000000 -232.000000 65023.000000 46 24 3
272.000000 -232.000000 65023.000000 53 35 2
273.000000 -232.000000 65023.000000 60 40 11
274.000000 -232.000000 65023.000000 66 46 21
275.000000 -232.000000 65023.000000 72 46 11
224.000000 -233.000000 65018.000000 174 143 95
225.000000 -233.000000 65018.000000 178 149 87
226.000000 -233.000000 65018.000000 177 149 79
227.000000 -233.000000 65017.000000 175 149 64
228.000000 -233.000000 65020.000000 174 148 50
229.000000 -233.000000 65020.000000 173 152 48
230.000000 -233.000000 65021.000000 172 148 46
231.000000 -233.000000 65022.000000 170 143 61
232.000000 -233.000000 65022.000000 168 139 76
233.000000 -233.000000 65021.000000 165 135 72
234.000000 -233.000000 65022.000000 161 138 68
235.000000 -233.000000 65022.000000 156 142 62
236.000000 -233.000000 65022.000000 150 134 57
237.000000 -233.000000 65022.000000 145 127 29
238.000000 -233.000000 65022.000000 125 117 1
239.000000 -233.000000 65021.000000 106 108 35
240.000000 -233.000000 65021.000000 78 53 70
241.000000 -233.000000 65022.000000 50 1 35
248.000000 -233.000000 65011.000000 16 4 1
249.000000 -233.000000 65013.000000 15 1 1
250.000000 -233.000000 65013.000000 11 1 1
251.000000 -233.000000 65013.000000 7 1 1
252.000000 -233.000000 65014.000000 6 1 2
253.000000 -233.000000 65015.000000 6 1 2
254.000000 -233.000000 65017.000000 43 33 3
255.000000 -233.000000 65017.000000 81 42 3
256.000000 -233.000000 65019.000000 82 77 3
257.000000 -233.000000 65021.000000 82 79 3
258.000000 -233.000000 65022.000000 81 60 4
259.000000 -233.000000 65022.000000 79 47 6
260.000000 -233.000000 65023.000000 83 60 9
261.000000 -233.000000 65023.000000 86 56 13
262.000000 -233.000000 65023.000000 93 60 18
263.000000 -233.000000 65023.000000 100 64 15
264.000000 -233.000000 65023.000000 107 93 12
265.000000 -233.000000 65023.000000 114 122 34
266.000000 -233.000000 65023.000000 101 73 56
267.000000 -233.000000 65023.000000 89 77 28
268.000000 -233.000000 65023.000000 71 36 1
269.000000 -233.000000 65022.000000 54 29 3
270.000000 -233.000000 65022.000000 43 27 6
271.000000 -233.000000 65022.000000 32 26 3
272.000000 -233.000000 65023.000000 41 28 1
273.000000 -233.000000 65023.000000 50 31 21
274.000000 -233.000000 65023.000000 56 40 41
224.000000 -234.000000 65018.000000 181 169 91
225.000000 -234.000000 65018.000000 182 153 96
226.000000 -234.000000 65018.000000 180 151 101
228.000000 -234.000000 65020.000000 177 149 62
229.000000 -234.000000 65020.000000 176 151 58
230.000000 -234.000000 65021.000000 174 153 54
231.000000 -234.000000 65022.000000 173 140 62
232.000000 -234.000000 65022.000000 168 139 70
233.000000 -234.000000 65022.000000 164 141 73
234.000000 -234.000000 65022.000000 163 143 77
235.000000 -234.000000 65022.000000 162 129 68
236.000000 -234.000000 65022.000000 148 114 60
237.000000 -234.000000 65022.000000 135 119 30
238.000000 -234.000000 65022.000000 104 82 1
239.000000 -234.000000 65021.000000 73 44 18
240.000000 -234.000000 65021.000000 39 7 35
249.000000 -234.000000 65013.000000 12 1 1
250.000000 -234.000000 65013.000000 7 1 1
251.000000 -234.000000 65014.000000 3 1 1
252.000000 -234.000000 65014.000000 4 1 1
253.000000 -234.000000 65016.000000 6 1 2
254.000000 -234.000000 65017.000000 42 44 2
255.000000 -234.000000 65018.000000 79 44 2
256.000000 -234.000000 65019.000000 77 66 2
257.000000 -234.000000 65021.000000 76 58 2
258.000000 -234.000000 65021.000000 76 50 3
259.000000 -234.000000 65022.000000 76 55 4
260.000000 -234.000000 65022.000000 79 60 5
261.000000 -234.000000 65023.000000 82 60 7
262.000000 -234.000000 65023.000000 87 60 9
263.000000 -234.000000 65023.000000 93 61 15
264.000000 -234.000000 65023.000000 91 77 22
265.000000 -234.000000 65023.000000 89 70 33
266.000000 -234.000000 65022.000000 85 63 44
267.000000 -234.000000 65023.000000 81 55 22
268.000000 -234.000000 65022.000000 71 47 1
269.000000 -234.000000 65021.000000 62 37 3
270.000000 -234.000000 65022.000000 40 26 5
271.000000 -234.000000 65022.000000 19 21 3
272.000000 -234.000000 65022.000000 30 17 1
273.000000 -234.000000 65022.000000 41 16 11
274.000000 -234.000000 65023.000000 47 16 21
232.000000 -235.000000 65022.000000 164 139 64
233.000000 -235.000000 65022.000000 164 141 75
234.000000 -235.000000 65022.000000 154 132 86
235.000000 -235.000000 65022.000000 145 116 75
236.000000 -235.000000 65022.000000 125 113 64
237.000000 -235.000000 65022.000000 105 111 32
238.000000 -235.000000 65022.000000 71 41 1
239.000000 -235.000000 65021.000000 38 29 1
240.000000 -235.000000 65021.000000 25 4 1
242.000000 -235.000000 65019.000000 17 4 1
243.000000 -235.000000 65019.000000 22 5 1
245.000000 -235.000000 65017.000000 15 3 1
246.000000 -235.000000 65017.000000 15 3 1
247.000000 -235.000000 65016.000000 15 1 1
248.000000 -235.000000 65015.000000 13 1 1
249.000000 -235.000000 65015.000000 12 1 1
250.000000 -235.000000 65014.000000 9 1 1
251.000000 -235.000000 65014.000000 7 1 1
252.000000 -235.000000 65015.000000 12 1 1
253.000000 -235.000000 65016.000000 18 1 1
254.000000 -235.000000 65017.000000 44 46 2
255.000000 -235.000000 65018.000000 71 47 1
256.000000 -235.000000 65019.000000 71 45 1
257.000000 -235.000000 65020.000000 72 44 1
258.000000 -235.000000 65021.000000 71 47 2
259.000000 -235.000000 65022.000000 69 64 1
260.000000 -235.000000 65022.000000 71 56 1
261.000000 -235.000000 65023.000000 73 49 1
262.000000 -235.000000 65023.000000 80 53 1
263.000000 -235.000000 65023.000000 86 58 16
264.000000 -235.000000 65023.000000 83 45 32
265.000000 -235.000000 65022.000000 79 33 32
266.000000 -235.000000 65022.000000 75 30 32
267.000000 -235.000000 65023.000000 70 28 17
268.000000 -235.000000 65022.000000 65 39 2
269.000000 -235.000000 65022.000000 60 45 3
270.000000 -235.000000 65022.000000 55 40 4
271.000000 -235.000000 65022.000000 50 14 2
272.000000 -235.000000 65022.000000 58 12 1
273.000000 -235.000000 65022.000000 66 11 1
232.000000 -236.000000 65022.000000 160 139 85
233.000000 -236.000000 65022.000000 165 130 65
234.000000 -236.000000 65022.000000 146 122 45
240.000000 -236.000000 65019.000000 11 1 1
241.000000 -236.000000 65017.000000 20 2 3
242.000000 -236.000000 65019.000000 21 5 5
243.000000 -236.000000 65018.000000 22 5 3
244.000000 -236.000000 65018.000000 18 6 1
245.000000 -236.000000 65013.000000 14 5 1
246.000000 -236.000000 65016.000000 13 4 1
247.000000 -236.000000 65016.000000 12 3 1
248.000000 -236.000000 65016.000000 12 2 1
249.000000 -236.000000 65013.000000 12 1 1
250.000000 -236.000000 65014.000000 11 1 1
251.000000 -236.000000 65014.000000 11 1 1
252.000000 -236.000000 65015.000000 20 1 2
253.000000 -236.000000 65016.000000 30 1 9
254.000000 -236.000000 65017.000000 46 49 16
255.000000 -236.000000 65018.000000 63 45 8
256.000000 -236.000000 65019.000000 66 44 1
257.000000 -236.000000 65021.000000 69 44 2
258.000000 -236.000000 65021.000000 66 44 3
259.000000 -236.000000 65022.000000 63 44 3
260.000000 -236.000000 65022.000000 64 44 4
261.000000 -236.000000 65023.000000 65 46 2
262.000000 -236.000000 65023.000000 72 48 1
263.000000 -236.000000 65023.000000 80 48 9
264.000000 -236.000000 65023.000000 75 49 17
265.000000 -236.000000 65022.000000 70 45 18
267.000000 -236.000000 65023.000000 60 26 11
268.000000 -236.000000 65022.000000 59 31 3
269.000000 -236.000000 65022.000000 58 39 8
270.000000 -236.000000 65022.000000 69 55 13
271.000000 -236.000000 65022.000000 81 62 27
272.000000 -236.000000 65022.000000 86 70 42
240.000000 -237.000000 65019.000000 9 1 2
241.000000 -237.000000 65017.000000 15 2 6
242.000000 -237.000000 65018.000000 16 4 10
243.000000 -237.000000 65018.000000 17 7 5
244.000000 -237.000000 65018.000000 16 7 1
245.000000 -237.000000 65013.000000 16 8 1
246.000000 -237.000000 65013.000000 17 7 1
247.000000 -237.000000 65013.000000 18 7 1
248.000000 -237.000000 65013.000000 16 4 1
249.000000 -237.000000 65013.000000 15 2 1
250.000000 -237.000000 65014.000000 14 2 1
251.000000 -237.000000 65014.000000 14 2 2
252.000000 -237.000000 65014.000000 23 1 3
253.000000 -237.000000 65016.000000 32 1 16
254.000000 -237.000000 65017.000000 47 47 30
255.000000 -237.000000 65018.000000 62 44 16
256.000000 -237.000000 65019.000000 68 44 2
257.000000 -237.000000 65020.000000 74 45 3
258.000000 -237.000000 65021.000000 63 35 4
259.000000 -237.000000 65021.000000 53 26 5
260.000000 -237.000000 65022.000000 51 25 7
261.000000 -237.000000 65023.000000 49 25 4
262.000000 -237.000000 65023.000000 50 34 1
263.000000 -237.000000 65023.000000 52 43 1
264.000000 -237.000000 65023.000000 54 45 2
238.000000 -238.000000 65020.000000 2 1 2
239.000000 -238.000000 65019.000000 3 1 2
240.000000 -238.000000 65019.000000 6 1 1
241.000000 -238.000000 65018.000000 10 2 3
242.000000 -238.000000 65018.000000 11 4 5
243.000000 -238.000000 65018.000000 13 6 3
244.000000 -238.000000 65018.000000 15 7 1
245.000000 -238.000000 65013.000000 18 7 1
246.000000 -238.000000 65013.000000 21 6 1
247.000000 -238.000000 65013.000000 24 7 1
248.000000 -238.000000 65013.000000 21 8 1
249.000000 -238.000000 65013.000000 18 7 1
250.000000 -238.000000 65014.000000 17 7 1
251.000000 -238.000000 65014.000000 17 3 1
252.000000 -238.000000 65015.000000 26 1 2
253.000000 -238.000000 65016.000000 35 4 9
254.000000 -238.000000 65017.000000 48 45 16
255.000000 -238.000000 65017.000000 62 47 9
256.000000 -238.000000 65019.000000 70 50 2
257.000000 -238.000000 65020.000000 79 41 2
258.000000 -238.000000 65021.000000 61 16 2
259.000000 -238.000000 65021.000000 44 13 3
260.000000 -238.000000 65021.000000 39 11 4
