ply
format ascii 1.0
element vertex 1412
property float x
property float y
property float z
property uchar blue
property uchar green
property uchar red
end_header
285.521 365.919 55.1985 1 2 14
289.957 382.483 36.5718 3 15 54
293.721 377.91 7.95503 1 141 180
293.289 372.858 -2.54649 4 142 180
290.095 366.658 49.3221 1 3 12
294.855 378.242 7.17762 1 141 179
288.898 361.903 71.2755 41 30 68
289.215 360.166 77.4304 1 17 29
296.002 381.524 34.6896 5 17 55
291.629 361.283 56.9872 2 2 6
291.686 360.404 52.837 7 5 5
297.711 375.941 2.64429 1 139 176
293.103 362.46 71.2154 12 16 44
298.531 363.789 -19.348 118 169 177
285.901 324.334 79.1903 17 17 37
300.808 381.622 22.4464 9 139 150
301.012 364.996 49.1017 2 1 35
306.557 376.435 10.6129 1 132 170
306.557 376.881 48.1068 2 115 148
298.523 339.855 74.6315 14 11 42
307.361 376.444 50.379 16 111 143
302.21 353.549 76.8423 1 7 29
310.585 373.88 2.53536 1 126 162
311.055 369.799 -2.37689 1 125 160
305.467 345.542 80.7514 6 2 46
306.965 351.728 76.5705 2 7 31
315.616 376.581 13.5983 4 118 154
317.09 377.757 27.8265 4 116 151
313.578 364.747 60.8931 1 98 128
317.602 367.865 55.2285 1 96 129
320.797 365.517 -9.2871 2 94 125
310.054 332.138 77.8704 1 77 109
318.269 366.604 56.9504 1 96 124
319.375 359.05 64.3481 1 70 113
316.559 344.117 78.3146 1 53 89
321.287 362.036 59.4051 1 89 122
319.503 351.697 71.69 2 4 23
318.379 342.895 77.8757 1 74 93
321.459 351.298 71.8014 2 4 21
325.311 365.153 53.7404 1 91 120
329.84 368.831 5.31571 6 114 140
326.334 361.57 58.8505 1 86 115
326.417 357.6 61.1381 1 84 108
327.103 356.046 61.4766 1 84 102
331.803 365.634 13.2483 3 86 110
332.153 366.109 8.81528 9 97 134
327.129 352.955 67.9144 9 3 35
331.562 366.644 39.0537 1 80 99
332.397 368.419 30.7379 2 74 91
333.433 367.341 26.6434 2 30 81
338.106 360.943 11.4371 4 59 77
136.311 406.133 55.1763 149 156 135
138.354 398.518 60.058 3 7 7
142.909 397.996 54.6748 3 7 5
157.715 389.507 44.2485 1 86 132
160.416 372.515 50.4097 1 90 136
174.579 352.493 51.1452 135 192 231
175.472 342.111 55.8793 57 170 214
177.448 362.925 43.2744 2 132 180
179.456 362.065 43.7558 4 149 191
179.867 323.856 58.9524 9 145 193
180.392 334.472 59.1108 6 146 194
180.778 341.509 59.6846 3 152 198
182.345 366.505 39.6403 1 141 185
187.473 328.788 63.0532 14 133 168
188.284 356.253 56.805 88 177 213
190.227 358.449 54.7063 56 157 200
191.278 345.654 62.7802 3 139 185
192.454 323.321 65.7545 3 127 155
194.302 358.9 55.1389 41 152 195
197.589 354.695 60.9281 95 166 201
199.752 368.142 42.6935 9 141 184
201.362 339.062 67.1222 5 134 164
199.915 371.994 30.1981 4 146 189
202.878 374.415 15.9377 55 148 197
206.115 315.491 65.4401 19 105 131
206.72 322.287 68.8235 9 108 134
207.013 328.681 68.6375 3 117 144
207.583 342.232 67.6206 5 129 162
207.459 363.262 53.7746 133 185 213
208.029 368.16 45.6083 29 144 175
208.077 311.696 67.0968 78 76 87
210.325 333.402 69.4962 18 125 156
210.525 339.153 68.5504 9 132 158
210.663 342.732 68.135 5 117 144
207.385 376.185 8.61948 59 174 213
208.264 395.366 8.0616 150 227 247
211.507 371.506 37.0819 2 134 179
213.482 335.309 70.1253 17 124 155
213.558 362.09 55.3336 72 147 189
213.27 398.826 5.83227 1 107 163
216.864 351.893 64.8781 52 153 188
216.925 354.065 64.3479 104 172 200
216.927 320.038 72.105 45 14 58
217.84 357.837 61.041 95 177 210
217.194 391.235 9.14559 1 123 181
220.959 346.353 69.066 2 139 178
219.04 398.015 3.17685 137 157 193
220.226 394.027 7.72491 1 116 170
219.926 398.088 1.69026 209 222 215
224.807 337.355 72.2645 9 134 173
225.105 358.667 63.3927 65 161 204
226.197 354.035 67.1809 126 190 216
225.123 369.395 45.0922 5 141 180
222.833 376.391 13.1263 4 154 206
227.096 358.571 63.2291 61 157 201
228.241 346.42 72.0626 6 139 176
227.491 366.645 51.078 47 158 191
225 393.264 5.15133 1 98 149
229.055 360.003 61.7754 44 156 193
229.969 363.775 58.4685 99 165 200
230.997 362.199 59.6768 67 158 197
232.226 341 74.8457 76 90 125
234.501 337.607 80.0718 3 21 60
234.409 357.109 67.5158 75 168 204
234.109 361.171 61.4812 53 156 193
234.756 367.476 53.4297 52 159 192
236.408 346.559 73.5728 9 142 173
236.621 368.264 51.2162 36 154 191
235.908 373.081 27.4825 14 142 182
235.546 374.971 21.9781 17 143 187
239.218 329.446 81.1387 9 19 56
239.577 352.929 71.7366 54 167 195
236.429 380.271 17.3812 21 131 181
236.048 388.152 8.12147 2 113 157
240.683 352.76 73.0596 58 161 179
240.508 355.937 69.0748 82 176 203
237.773 373.87 25.2691 1 143 184
237.55 379.338 19.3492 1 145 187
242.767 353.308 73.6557 93 85 116
243.633 359.372 68.4138 70 110 134
243.306 371.226 45.254 18 150 186
246.7 355.408 71.3935 102 98 125
242.687 388.178 3.33446 118 167 168
243.792 388.009 4.65745 88 119 156
247.71 371.315 49.9009 20 154 192
249.903 360.25 70.8473 62 58 100
247.724 378.617 21.3407 3 124 163
250.997 321.591 82.3928 19 26 55
247.916 386.168 7.02503 47 75 124
253.394 368.06 59.8556 102 110 138
253.084 308.258 78.9499 59 51 61
254.499 367.891 61.1786 129 114 131
256.034 357.55 73.6963 104 97 119
254.159 375.282 40.484 6 149 190
256.332 370.208 57.6751 62 60 124
254.623 375.073 34.0232 3 149 190
254.205 381.055 13.2139 1 96 137
261.924 340.936 81.7766 3 42 107
260.994 377.631 24.4916 1 148 187
264.45 372.639 57.2502 46 147 187
263.525 375.895 44.0768 15 152 189
262.193 378.106 26.5743 1 150 189
266.918 339.932 82.0126 23 124 157
262.227 379.417 1.7695 173 176 199
267.913 339.884 81.9308 15 123 159
267.863 367.549 65.0892 87 173 202
266.714 376.274 45.996 2 148 186
269.679 370.63 60.9408 54 161 191
266.147 377.053 1.97252 74 178 205
273.261 347.445 81.4505 6 120 157
272.687 375.986 45.5051 1 144 181
271.62 380.891 29.6369 10 149 194
274.515 326.519 84.5396 27 21 67
271.567 379.757 17.4423 1 149 186
276.506 326.423 84.376 14 47 81
277.153 341.382 83.4738 26 2 60
280.306 348.517 80.9926 7 4 25
279.805 372.201 60.9972 39 1 42
280.549 328.403 83.5185 20 20 65
281.25 355.988 75.8655 8 19 44
281.834 339.976 80.1404 1 2 15
281.176 340.699 71.7117 1 2 16
281.535 310.01 81.863 5 3 22
284.371 364.65 72.0943 11 31 57
283 378.844 47.0811 11 142 176
286.615 328.758 83.7874 18 32 61
287.135 369.975 65.929 25 29 59
287.1 342.703 69.2858 2 2 9
284.412 383.717 12.5087 2 140 180
289.271 382.561 23.4198 48 159 191
289.255 383.325 22.7747 26 164 195
288.394 383.525 12.1815 4 141 181
293.298 365.746 70.0679 1 2 62
295.354 362.594 72.4844 1 61 93
293.111 384.017 20.3977 41 147 184
296.186 341.387 70.5994 1 3 64
298.357 361.686 72.884 4 115 142
297.517 376.041 54.2498 2 123 164
295.666 382.554 27.9031 7 136 171
299.257 377.714 49.9866 1 125 160
300.033 377.908 47.0952 1 125 160
301.232 378.383 49.1779 1 124 159
299.279 386.053 8.70151 3 122 160
304.207 357.056 73.4536 1 100 135
305.19 352.544 75.8371 1 95 132
304.944 369.232 63.0516 11 112 151
302.399 383.224 23.8758 2 121 157
308.071 347.293 77.2972 1 92 125
305.808 383.361 28.6045 15 118 151
311.981 360.612 68.1693 1 97 131
312.604 332.617 79.9549 11 14 42
313.907 363.572 65.4257 5 100 131
309.434 382.67 -0.211639 2 83 103
314.128 374.823 49.2897 1 96 131
317.578 337.605 76.4356 1 80 106
317.742 350.111 71.0895 1 86 118
317.305 370.739 53.6741 1 89 120
319.398 335.458 75.3974 1 72 103
318.464 374.543 41.0969 1 84 116
319.837 371.841 47.1645 1 82 109
321.623 359.73 63.7819 1 84 112
321.51 365.078 59.2668 1 84 111
320.252 373.924 38.7687 1 80 113
321.513 379.408 14.2264 12 70 91
323.15 379.401 21.9283 2 45 58
324.129 380.117 21.2015 1 3 48
323.816 379.715 17.6321 1 7 51
327.082 333.144 72.4636 1 2 4
327.033 335.436 70.5286 1 1 13
325.928 372.47 35.3535 10 21 3
325.896 373.997 34.0635 9 8 22
325.409 376.772 26.5093 13 17 18
327.536 368.763 44.8758 19 14 31
330.313 341.685 70.0972 2 45 54
328.882 373.854 33.8181 4 59 74
328.679 373.331 31.6535 4 59 75
116.225 355.687 17.5549 2 5 7
118.963 354.757 21.2478 4 7 8
119.203 349.031 16.6491 2 5 7
128.626 343.765 28.916 3 67 110
149.854 337.452 58.9749 84 170 245
149.589 336.657 58.4291 30 128 209
153.5 342.421 66.4587 78 177 218
160.148 350.192 77.5684 30 151 197
156.653 338.559 57.7325 9 155 198
163.65 352.007 87.8857 14 147 190
163.327 349.915 74.5995 3 144 194
161.8 344.425 61.3508 22 151 195
159.398 327.811 51.9068 37 146 191
158.399 324.919 51.1067 19 142 189
167.948 351.254 77.739 17 139 185
166.6 342.686 57.8955 46 151 196
170.272 353.256 93.8508 35 135 174
153.615 302.157 48.1076 135 207 239
171.361 353.14 91.66 24 133 168
170.251 340.773 55.2479 92 179 217
173.602 348.244 66.56 10 141 182
172.046 343.114 58.2982 40 145 189
175.455 350.873 70.9935 6 137 175
165.349 320.371 48.8695 11 149 193
173.548 341.074 55.0454 129 185 214
170.757 332.905 51.8078 36 151 188
170.942 321.016 47.0516 63 165 201
178.465 339.912 54.3565 117 174 205
168.683 308.564 46.1314 16 151 196
185.492 353 79.5226 30 120 149
175.915 323.08 47.1331 77 154 202
174.859 316.963 45.5627 5 136 186
185.614 345.688 60.8005 10 129 174
173.543 304.177 44.6721 24 163 199
173.073 302.875 44.9637 46 157 196
189.851 349.599 71.3719 5 130 162
186.034 333.946 50.2199 53 145 184
187.919 333.278 50.2793 40 142 181
184.07 321.929 44.8585 53 143 186
194.852 353.319 89.1807 2 99 130
194.823 352.67 82.8105 4 108 138
194.237 349.784 68.9786 18 119 153
195.795 351.977 77.8533 3 118 153
195.443 350.245 69.5541 2 125 156
195.385 349.956 68.1709 1 126 156
174.527 284.855 32.0347 3 138 191
197.475 349.795 67.3929 1 132 161
175.558 284.451 28.4607 10 132 185
180.761 294.55 44.2063 1 137 192
179.206 287.491 47.9144 6 152 205
201.684 350.121 72.2071 5 122 158
204.892 350.493 75.6083 1 124 155
182.594 283.776 33.3639 1 128 186
206.773 354.778 97.7691 25 21 52
207.567 356.155 88.0495 12 32 55
206.305 351.461 75.3465 1 122 155
204.249 344.381 61.0061 17 135 177
200.636 333.178 49.7609 45 148 193
199.167 328.985 49.2525 45 149 184
200.464 326.439 46.8371 74 170 205
197.145 313.743 43.1207 11 136 174
193.12 302.536 44.9074 3 133 176
185.716 280.273 29.6247 1 119 170
186.776 280.517 32.4207 3 121 176
212.901 348.117 64.1973 12 139 177
204.44 322.674 46.7313 72 170 198
204.176 321.878 46.1855 37 155 195
194.891 295.418 43.4261 5 130 181
216.045 356.089 87.7039 17 18 49
212.022 341.858 55.4193 56 162 190
210.23 336.581 52.9818 100 169 207
205.118 321.545 46.2151 39 155 194
191.015 280.484 32.248 1 123 169
188.9 274.123 27.8815 155 150 170
189.577 272.994 27.3653 189 230 221
195.602 288.056 39.1487 23 134 168
205.947 314.76 44.7041 30 139 179
191.785 273.41 29.3537 101 117 145
220.461 355.913 80.3236 14 29 59
219.199 351.219 67.6206 86 94 126
197.163 286.305 37.2791 21 140 181
221.257 354.354 71.2168 14 17 51
212.238 326.672 46.289 87 182 207
204.158 303.61 43.4923 39 152 188
193.405 271.948 28.8673 223 218 206
223.404 356.498 94.5362 7 6 44
223.641 354.629 65.9976 18 12 53
217.443 335.764 50.6775 94 178 209
224.818 355.45 71.5601 13 21 56
203.841 293.716 43.4018 4 138 180
201.079 285.187 35.1773 1 120 165
206.458 298.082 43.1026 8 138 179
225.031 346.138 61.2041 33 138 167
229.146 355.345 67.7835 18 22 53
226.533 344.098 57.9513 41 14 51
220.395 322.585 44.6272 90 187 212
233.062 354.228 65.6817 3 12 38
210.674 288.59 38.3981 1 121 161
234.033 354.543 72.0816 4 9 46
231.83 347.245 59.9617 10 26 65
225.837 328.887 43.8043 80 77 101
204.094 266.424 31.7359 196 199 204
234.417 351.971 64.6495 9 18 47
231.803 343.66 54.2044 26 21 60
212.822 288.718 39.0033 1 121 159
226.194 323.737 41.972 81 121 141
212.971 285.998 37.3956 1 118 159
238.388 356.095 86.0323 2 8 44
224.67 313.382 41.306 29 153 191
232.109 325.467 42.0831 82 67 101
242.219 350.096 65.4329 21 31 59
243.986 348.851 62.7259 24 27 57
221.51 283.284 39.046 4 101 141
218.456 271.383 35.8755 214 212 206
246.282 349.197 61.1105 8 16 81
229.624 300.113 38.0815 6 153 190
249.546 354.809 87.9964 9 11 47
222.193 273.345 40.3684 78 31 108
251.342 353.205 80.3024 6 12 36
226.487 279.474 40.3532 8 144 179
249.735 336.96 49.7817 17 132 168
241.922 310.747 36.7865 14 148 183
241.867 304.585 36.629 9 147 180
235.579 286.8 36.2698 21 154 186
260.061 346.403 64.001 37 118 128
261.003 346.07 64.0308 19 82 103
259.711 341.735 56.3147 8 64 96
244.58 297.133 35.1774 34 151 182
264.532 349.541 92.0752 7 7 34
255.487 319.195 38.0631 74 71 103
245.471 284.764 36.2752 13 153 186
256.521 312.917 35.7147 36 24 50
266.099 339.9 68.7171 1 3 18
265.367 334.867 69.0757 1 3 12
270.836 344.753 74.01 6 10 46
270.841 336.864 52.5215 4 12 30
270.08 331.182 46.5099 7 14 41
269.022 328.002 44.3267 12 17 40
247.396 266.117 35.0246 3 149 187
246.25 263.007 36.4451 8 149 186
275.133 345.009 75.2205 24 20 53
250.748 272.579 34.9797 22 148 187
273.08 333.984 50.1358 6 8 40
252.104 270.322 33.9474 48 163 194
275.758 335.702 51.8326 2 8 43
270.917 311.643 36.0931 1 126 161
281.643 338.799 68.2878 15 16 51
283.73 342.583 78.2541 3 6 33
284.174 340.299 72.2052 9 86 110
275.628 309.974 36.2416 2 119 157
287.467 344.544 82.747 5 14 37
285.529 338.041 71.173 2 85 112
283.239 329.807 51.2998 1 103 133
275.777 307.255 34.6339 1 121 154
270.784 289.86 31.2464 1 121 159
279.453 311.865 37.1308 1 115 149
282.393 317.315 38.7605 3 111 149
280.396 311.531 37.1604 1 114 149
286.743 327.677 50.8728 4 95 131
281.867 312.788 38.2818 1 115 148
280.603 309.101 36.9359 1 115 151
265.706 266.662 32.6884 2 122 156
291.59 342.005 91.7778 57 73 84
262.681 255.41 35.888 1 118 154
290.801 334.667 68.039 1 84 111
291.153 335.391 64.981 1 85 113
289.305 325.881 50.4161 1 94 129
275.761 286.05 32.5535 1 109 149
272.823 277.664 31.5365 1 117 148
293.331 336.167 71.9564 14 30 74
292.949 334.794 68.6442 1 83 100
285.316 304.496 37.6972 2 104 139
280.264 286.812 32.9266 1 101 137
299.366 335.537 75.4467 1 3 20
298.605 329.855 69.4352 1 73 101
270.429 247.373 36.5138 68 1 10
296.492 319.55 54.3244 1 85 119
302.491 329.098 72.3204 1 48 63
274.109 246.11 40.2364 41 167 196
302.405 325.224 65.1798 1 76 98
298.293 312.072 47.8561 1 83 108
298.06 307.981 42.9362 1 76 104
283.988 264.631 35.952 12 114 141
298.42 296.958 42.3295 1 43 50
303.478 305.832 48.9387 1 14 30
300.422 296.868 45.1553 11 7 27
295.898 283.711 40.8634 13 9 37
308.596 312.057 57.5438 10 46 67
131.246 335.969 92.5799 26 47 43
139.11 335.773 80.743 5 7 3
147.801 334.797 86.7864 5 3 12
149.213 325.732 66.248 160 164 209
157.643 333.213 75.3568 2 4 5
163.516 329.033 74.3438 3 81 124
163.101 329.948 72.1099 2 89 138
183.809 318.574 75.2431 42 123 180
174.808 324.793 61.5569 1 79 130
185.009 321.181 68.4782 1 83 136
182.653 321.37 56.0117 1 81 132
183.833 311.133 44.8846 66 127 163
182.95 310.799 43.1212 133 235 254
205.425 308.617 78.7876 39 153 194
191.258 319.293 61.1721 1 77 134
201.873 314.765 70.3274 28 139 188
192.618 317.68 53.9922 1 78 144
190.918 295.652 36.332 244 254 254
211.446 314.123 78.1343 17 139 185
192.772 296.371 27.3294 135 203 241
200.472 320.679 50.6281 35 147 191
209.64 327.374 58.3821 119 177 209
205.382 323.63 44.2101 39 154 190
216.762 329.015 61.3125 24 133 175
239.312 311.895 85.0267 14 111 135
238.982 313.911 83.6758 12 112 136
218.08 331.661 59.018 14 136 177
245.048 304.448 85.8352 2 106 128
205.853 323.828 30.3271 77 158 195
238.078 321.062 80.506 14 111 138
216.224 332.036 49.6685 94 177 205
217.93 332.685 50.9602 102 167 199
217.073 333.433 47.8445 67 152 188
226.025 333.616 61.4766 12 128 169
217.456 333.581 46.4911 51 143 182
207.171 316.857 17.3786 25 166 211
210.21 324.429 23.4966 22 139 184
218.46 332.903 39.3124 28 139 179
233.614 336.506 63.9365 9 128 172
231.902 338.002 57.7051 5 127 166
212.691 322.177 13.6085 12 136 190
216.8 326.946 19.7226 3 132 181
248.737 331.555 74.3191 5 125 158
232.246 341.357 47.8246 20 136 175
226.425 338.085 35.4791 9 131 171
221.147 330.741 21.3651 1 129 177
225.67 334.594 29.7131 1 126 169
257.969 326.507 78.5939 49 103 156
225.027 333.287 23.478 2 127 170
234.626 343.345 40.5867 22 141 179
241.1 344.729 50.6944 17 135 175
224.079 335.079 14.5397 1 110 156
230.995 336.63 25.5291 3 129 168
257.722 340.337 70.4278 9 129 164
217.651 338.004 -3.21206 1 104 149
263.579 341.496 72.9482 121 121 153
232.63 341.549 14.7064 4 131 171
223.534 340.245 -2.04394 1 106 150
239.843 342.146 23.4593 16 137 175
237.111 340.043 17.2859 9 130 176
236.313 340.81 16.4055 17 130 173
268.835 346.707 75.0019 10 10 45
249.033 350.974 43.2737 115 180 212
223.544 337.05 -10.5169 217 212 204
228.679 343.273 0.478966 1 111 152
262.279 352.788 61.2527 17 13 49
242.866 345.441 22.4566 68 158 187
262.358 356.035 57.196 9 25 58
246.916 350.19 26.3355 122 189 220
238.804 344.981 8.6984 1 112 157
251.354 352.942 33.8006 49 159 192
270.911 351.793 65.0609 23 21 53
260.646 357.531 50.9647 9 23 58
235.598 343.773 -1.94414 2 102 142
262.352 358.179 52.2564 7 19 50
266.535 357.627 57.0725 14 32 58
248.887 350.947 21.8033 95 175 209
239.249 344.098 -3.83246 1 92 134
262.287 360.305 45.0816 41 30 71
275.278 358.815 60.4115 18 30 59
275.305 359.897 59.0593 15 14 52
264.784 362.331 42.3141 21 98 139
254.552 357.388 21.1513 99 179 214
250.682 351.647 10.5655 90 171 204
285.282 351.918 66.919 15 6 38
268.638 363.795 45.7793 2 129 165
267.34 364.376 41.7818 12 134 171
246.822 342.71 -8.49331 2 69 137
256.523 358.146 16.6191 121 177 217
249.793 343.84 -6.79165 18 146 175
282.368 361.519 59.7544 3 120 151
276.972 363.753 51.8239 7 127 164
256.761 357.173 12.1474 106 184 216
274.521 366.036 46.9474 2 129 165
275.753 367.581 43.7699 2 127 168
254.863 352.189 -2.97065 74 162 190
253.215 341.942 -12.6812 3 149 187
272.541 368.518 28.1878 21 144 177
261.527 359.003 2.61124 48 159 192
259.987 323.138 -26.1181 25 155 195
259.461 321.87 -27.8828 42 180 189
288.68 368.216 51.925 4 30 69
282.402 370.117 42.2311 44 64 91
270.829 370.014 21.9564 25 141 176
258.327 336.416 -24.3997 1 140 178
266.342 364.047 3.78321 37 160 188
272.8 370.771 17.4242 49 141 173
308.603 353.321 64.057 28 32 54
284.069 373.973 34.9958 10 19 51
263.636 343.791 -25.0505 77 170 204
290.367 375.299 38.3978 9 20 45
277.125 372.434 7.00632 10 138 169
314.836 356.772 60.2843 14 18 48
297.463 375.858 42.6804 4 14 39
289.861 377.258 30.3413 19 10 57
268.983 328.725 -38.4822 159 150 74
271.921 330.918 -40.3679 127 104 58
277.926 370.616 -5.52577 1 131 166
271.51 359.634 -24.0523 1 143 178
307.216 374.223 43.7803 16 87 118
278.903 368.857 -11.3522 1 129 164
288.944 379.081 6.63819 2 117 153
285.626 375.69 -3.53512 1 121 157
310.945 377.794 37.8354 1 89 119
310.174 379.643 35.6027 6 89 121
286.545 373.91 -11.5968 1 116 151
322.9 368.428 46.1025 8 70 97
285.901 372.603 -17.832 1 113 146
317.371 375.963 37.235 1 79 109
300.599 381.38 9.44369 1 101 138
285.173 370.195 -24.9502 5 101 137
324.159 371.054 41.5729 1 69 93
310.374 381.878 22.604 9 112 141
301.805 381.842 7.61844 3 96 132
316.594 379.958 30.0627 1 84 112
310.665 383.069 15.4279 9 84 115
309.724 382.715 11.4292 1 83 112
298.083 376.171 -13.2618 1 86 123
290.344 364.688 -34.4335 1 87 119
318.947 380.863 24.177 2 78 106
296.913 373.595 -21.2617 2 92 128
295.573 368.817 -31.0276 28 149 186
327.824 376.75 28.4532 1 60 85
313.614 382.067 5.06917 1 70 91
297.789 366.457 -35.0919 15 103 122
294.021 356.477 -48.328 64 101 135
313.055 381.861 -0.282949 1 49 85
307.032 377.448 -17.9819 4 1 3
337.736 370.896 29.138 1 20 34
298.809 360.439 -45.8038 45 50 74
316.86 380.111 -7.52598 13 54 77
309.189 375.069 -24.2814 7 63 84
140.499 353.881 6.49759 1 7 10
145.411 353.683 1.12769 3 4 7
155.243 346.941 -14.5848 1 140 186
156.146 343.986 -16.4432 113 178 209
158.215 348.826 -9.14286 6 100 151
170.117 345.3 -7.43768 1 86 135
179.182 342.09 -8.15227 2 82 132
183.897 334.31 -22.5482 5 128 176
184.727 334.534 -21.425 4 120 174
190.956 330.605 -0.312126 1 90 145
192.283 320.233 14.1331 33 133 174
196.075 330.018 8.48857 5 129 175
201.201 323.381 19.3815 15 127 170
203.81 339.394 -2.65868 16 133 176
209.284 334.133 -34.1447 109 204 241
205.4 340.513 -8.50847 52 142 185
206.932 331.672 17.055 3 131 170
213.35 344.779 -20.5751 28 149 197
213.419 344.402 -5.41419 4 132 173
213.01 338.975 13.7788 12 127 170
215.908 345.075 -2.04487 1 127 168
215.844 340.577 13.1462 6 128 168
222.624 341.922 -38.4312 45 176 223
217.171 330.205 27.5914 1 110 149
217.571 341.979 13.371 17 128 166
223.608 326.629 31.5628 4 103 141
235.08 338.054 -47.7521 77 49 148
236.26 335.076 -51.5912 115 80 153
226.901 348.636 2.4788 4 125 162
227.264 334.508 29.9609 1 113 152
230.223 348.649 -14.2236 1 124 167
227.805 344.351 17.8026 14 127 165
232.486 364.026 -25.1969 3 118 167
240.406 338.41 -41.9632 3 96 144
243.598 330.465 -52.5306 63 130 148
231.331 346.189 19.2834 13 127 166
241.303 339.588 -42.8614 1 94 139
232.371 343.517 23.4996 14 126 171
235.524 368.49 -31.8936 1 102 148
234.165 347.792 18.6508 35 128 165
238.173 351.584 -9.10802 1 120 162
236.033 347.263 20.9377 18 131 164
237.758 350.584 18.1101 3 129 167
239.769 346.205 25.5116 3 132 166
244.326 354.083 -5.24827 9 131 170
244.187 354.389 2.80697 8 134 173
246.331 354.132 10.1783 4 132 170
247.23 353.685 19.3973 6 128 167
248.473 355.793 14.4971 1 131 168
253.583 364.955 -37.4062 60 128 159
253.027 365.59 -19.3151 2 103 147
253.451 358.173 -3.01148 1 101 161
256.909 359.058 0.49059 105 173 213
258.219 362.12 -6.43095 9 109 151
256.147 358.752 21.5934 15 135 168
257.879 356.315 27.923 20 22 70
261.328 365.618 -12.0966 2 101 140
261.466 365.606 -13.087 2 100 140
272.44 332.056 -39.4303 57 183 216
259.63 338.232 51.6069 6 12 39
263.611 365.054 -12.7806 1 98 135
274.583 333.423 -42.1764 149 206 228
262.545 330.899 57.1499 1 8 34
262.231 361.627 10.2921 110 182 208
268.038 365.562 -23.2756 1 83 125
263.214 348.995 45.9216 9 12 43
264.511 363.277 13.6207 67 149 184
267.69 365.809 8.98611 87 169 195
266.525 355.649 41.2568 8 126 165
266.652 365.232 25.0045 1 133 168
273.505 363.693 -22.4894 11 120 164
268.589 365.363 18.2051 14 135 170
270.525 367.118 1.28848 83 165 196
276.556 357.972 -28.054 14 150 186
274.884 366.378 -14.2501 84 179 208
270.963 346.856 53.0887 9 100 135
274.604 368.909 -1.192 91 172 200
280.841 361 -26.4812 1 149 185
274.607 364.33 36.2249 5 129 163
282.279 371.279 -8.22565 81 161 194
280.41 371.067 20.7996 1 131 162
282.553 372.139 10.9886 13 137 172
295.236 355.344 -39.5492 11 135 183
283.119 361.461 46.5365 7 24 51
288.986 373.437 -15.392 105 184 217
285.525 374.024 16.4305 4 128 166
289.401 373.696 -11.2981 72 152 188
298.073 354.733 -44.1944 5 1 121
288.637 375.309 6.75229 12 137 169
290.156 377.394 -0.128534 37 146 177
297.638 369.674 -27.2656 25 162 199
290.109 358.133 53.6116 4 9 36
289.476 366.821 44.3321 11 20 47
290.851 374.38 22.2195 1 125 157
294.515 376.948 -8.60217 41 141 178
301.942 358.09 -32.5858 1 132 184
304.438 354.041 -44.3064 1 3 81
291.567 353.506 57.9093 7 8 18
290.584 365.103 46.527 3 20 43
296.384 376.125 -13.3801 75 160 187
297.906 376.291 -17.2085 107 186 205
293.504 353.931 58.1749 5 8 30
305.194 357.739 -33.1369 7 153 199
294.721 377.149 19.6983 1 122 156
299.629 380.2 -5.90628 15 137 170
297.235 356.711 56.644 20 43 77
297.289 369.474 43.3732 1 104 137
299.219 375.362 27.4167 1 115 147
303.573 379.79 -11.409 21 132 169
305.09 382.758 2.90503 4 119 154
309.865 381.983 -15.6045 1 123 158
307.373 382.488 9.28594 1 111 150
308.065 382.43 4.33442 1 114 149
314.648 375.156 -32.0217 2 135 166
306.567 361.743 55.8691 2 74 104
306.133 377.131 34.4208 1 104 135
312.425 381.396 -18.2691 1 120 154
309.176 377.757 33.8289 1 96 130
314.843 383.328 -8.8659 1 106 138
318.237 380.456 -21.4848 1 108 142
314.737 355.437 59.1051 7 57 86
316.502 384.07 0.445263 1 96 130
320.659 379.881 -23.1591 1 99 134
319.272 382.211 -9.24355 1 93 127
320.863 381.706 -4.97598 1 84 122
317.341 375.582 38.0251 1 76 103
319.644 359.371 54.6954 1 59 88
320.173 378.81 27.2751 1 76 103
323.49 382.367 -2.59702 1 75 133
323.905 382.626 1.497 2 84 134
323.559 381.99 12.5639 3 78 124
323.914 373.914 37.9538 1 60 85
324.814 373.172 40.108 1 59 80
327.044 359.846 52.6948 2 45 49
333.314 381.971 -13.3369 1 42 74
329.792 375.847 29.6643 1 3 8
331.307 381.476 9.61369 1 1 14
334.905 381.465 -9.0693 8 7 49
156.291 370.465 0.53833 3 7 10
157.489 371.125 4.79589 3 6 7
171.694 365.52 -8.19668 1 109 157
190.439 355.947 -15.7447 2 111 160
190.818 355.72 -17.6954 5 114 165
191.008 355.607 -18.6706 10 117 169
195.346 331.41 -28.3483 247 254 254
196.548 349.416 -23.0268 5 144 184
196.124 355.492 -7.40939 1 79 129
206.021 335.929 -39.1009 81 191 234
212.075 332.25 -47.7499 219 254 254
204.734 352.351 -13.5732 9 97 153
206.583 351.684 -12.111 9 136 178
205.558 345.468 2.76544 1 120 162
211.517 347.549 -31.178 63 169 212
206.022 343.061 7.23636 4 121 164
214.636 343.557 -40.3614 80 171 219
209.22 351.235 -9.49537 3 127 173
209.885 338.558 16.7126 9 121 163
221.355 352.316 -31.8689 34 180 219
215.887 349.691 5.30915 10 126 174
224.261 351.959 -36.3891 21 187 227
228.448 356.658 -34.0696 11 165 211
222.492 353.385 6.16489 5 129 169
223.966 345.174 19.708 1 110 152
226.944 359.369 -4.9425 19 127 169
228 359.678 -10.9248 5 127 171
228.975 360.975 -17.0377 1 129 176
232.747 361.04 -26.5649 57 190 215
231.45 362.502 -14.6831 1 129 170
234.47 360.633 -7.72704 1 125 166
233.688 358.03 3.70154 3 125 166
234.88 361.077 -4.62293 4 125 166
235.963 363.249 -11.8416 1 127 167
236.535 361.716 -8.4765 1 127 165
238.32 386.018 -32.4813 4 112 151
241.764 359.535 -35.9157 6 147 193
235.432 355.295 12.5605 11 125 162
239.657 363.109 -15.2083 1 117 165
238.534 352.439 19.647 1 118 153
242.112 360.387 0.96466 4 120 161
239.868 349.26 25.4019 5 117 153
245.751 363.097 -3.76884 3 119 158
254.747 350.213 -45.6385 19 61 126
243.949 339.931 36.506 26 115 152
244.706 352.632 24.926 1 111 153
252.236 382.649 -28.3592 12 110 147
257.549 353.171 -40.3103 1 80 128
247.641 352.945 25.4604 1 117 153
252.678 364.031 -8.68217 1 115 157
259.1 351.743 -36.767 1 79 132
247.755 339.473 38.3244 32 120 153
249.026 354.686 22.4517 3 125 158
249.923 355.778 22.4994 6 125 159
250.437 358.289 18.2066 2 127 161
254.266 360.887 12.4978 2 125 161
255.16 363.172 6.25447 3 125 161
260.562 373.975 -7.27779 2 104 145
255.775 345.576 41.2261 5 123 157
269.401 342.142 -31.5992 1 128 170
270.838 335.647 -35.6928 3 95 149
257.434 345.023 43.6636 17 122 154
271.9 340.147 -32.9325 1 143 190
263.78 363.03 15.1244 3 128 166
274.971 343.198 -34.7401 82 179 211
264.271 362.485 18.3589 1 131 166
267.121 364.979 12.472 1 131 167
268.699 365.414 14.7789 1 131 168
267.023 360.525 32.4508 45 30 48
266.758 347.279 47.2654 3 11 42
271.634 365.726 15.3134 1 131 170
274.234 373.57 -3.54708 1 99 137
269.309 355.588 39.6201 6 17 49
286.278 354.102 -35.8576 28 164 213
272.979 358.969 39.9413 2 4 46
283.437 373.145 -20.1641 3 84 131
276.885 368.348 24.2326 6 131 170
279.215 370.716 10.0563 2 133 170
289.766 367.172 -23.3668 49 162 195
290.606 365.731 -27.1376 4 152 187
279.665 361.674 40.9275 2 118 154
290.744 367.276 -23.1887 55 163 195
282.972 370.723 23.09 11 132 167
293.598 368.576 -22.7847 35 162 201
295.525 368.115 -27.483 1 151 187
295.486 378.155 -5.07352 25 132 167
299.496 371.064 -22.9519 13 146 183
299.092 374.812 -17.3134 69 162 202
301.561 372.147 -23.7014 3 142 178
296.23 377.645 13.5862 8 130 164
292.119 356.359 54.219 13 14 20
292.334 364.686 48.168 13 10 41
296.941 377.657 20.9002 22 127 163
309.416 374.844 -23.5123 1 159 210
308.771 380.362 -11.9743 49 160 193
302.22 375.565 32.4225 3 125 150
312.327 378.677 -19.2899 49 171 209
309.16 383.134 1.10876 1 129 164
309.949 383.352 2.26225 1 131 162
315.964 376.004 -26.475 14 161 201
314.91 381.079 -18.0411 99 183 214
315.079 383.294 -9.03745 42 140 179
307.634 369.635 45.442 1 109 135
310.748 379.99 22.2888 9 121 153
319.772 380.93 -22.2049 20 151 187
315.359 385.191 5.15139 14 125 160
316.446 386.17 4.22378 8 125 159
310.411 364.153 55.8459 5 88 122
319.872 385.938 7.99288 1 119 151
318.386 380.936 24.6894 1 108 140
322.025 383.647 19.9559 1 105 139
324.28 384.617 18.2311 1 106 136
322.28 377.104 39.2205 1 92 124
325.858 385.052 20.5381 1 98 130
328.756 387.08 3.4359 3 101 133
334.31 380.947 -23.4812 1 115 143
323.804 373.813 44 1 83 116
338.044 384.475 -6.7596 1 81 118
329.788 360.965 57.933 2 55 80
331.795 366.092 49.5258 1 61 88
338.436 386.054 12.6144 18 91 135
344.939 379.354 -19.1793 102 174 206
345.128 379.241 -20.1546 72 190 210
335.921 376.029 37.8964 1 58 85
342.103 384.05 10.484 9 112 149
344.975 384.216 -5.38193 17 115 150
345.655 383.558 -3.12267 1 113 134
136.637 409.831 26.0231 34 17 19
137.717 408.549 22.1259 57 85 56
142.571 405.699 20.3038 16 4 5
151.398 401.969 17.8204 8 20 46
154.031 395.04 12.6189 8 137 174
160.072 378.358 1.56406 184 250 254
162.677 392.667 16.31 1 96 142
165.551 391.025 16.1079 1 91 135
166.517 387.866 11.0003 2 105 154
165.683 370.64 -4.34822 200 231 247
166.915 375.323 -0.158957 64 155 198
171.108 388.075 20.159 2 65 127
175.751 372.616 -0.923355 11 134 180
175.528 369.373 -2.4845 30 149 186
174.652 347.548 -25.5687 139 219 254
177.343 360.668 -14.7695 91 190 232
179.009 381.203 10.2412 1 83 134
178.091 354.778 -20.5787 45 182 224
179.817 381.957 15.6057 2 71 130
182.649 375.715 7.66787 1 93 141
184.937 373.544 18.2536 7 95 142
186.523 374.491 8.37475 2 116 162
187.508 373.376 6.70528 2 136 182
190.639 357.264 -25.6149 62 12 90
192.833 358.277 -27.3927 1 1 52
194.229 370.459 -12.5384 28 172 216
195.887 376.567 5.92638 13 121 164
197.575 372.336 24.7214 9 115 154
198.763 369.403 35.7662 17 118 147
201.417 362.666 -30.0485 91 207 243
203.817 375.777 -13.4255 12 158 200
209.013 378.558 -11.6166 1 129 210
207.476 348.028 -37.6653 191 237 249
212.145 373.346 -23.6591 27 144 191
211.999 367.892 -30.8861 17 155 192
209.917 370.608 36.1534 8 99 134
213.112 370.187 -28.7667 42 151 187
217.141 375.44 -19.1138 2 134 186
214.584 368.605 39.6463 22 97 133
218.071 368.192 -31.0975 69 62 152
223.259 397.273 -20.4944 12 123 165
219.187 343.677 -38.6319 1 122 164
221.825 364.581 -32.4605 49 31 128
222.952 368.409 -27.7625 2 108 150
227.232 396.392 -21.1557 2 117 163
223.925 352.356 -36.8374 1 99 145
223.664 374.199 29.2899 1 106 143
228.231 396.811 -20.2466 5 112 156
227.146 356.855 -32.5491 13 88 129
227.839 377.022 11.3009 9 109 151
228.698 351.208 -33.8532 2 81 126
231.489 364.671 -24.4222 1 82 133
232.032 357.583 -28.3545 1 77 129
235.291 393.492 -6.67677 1 91 132
233.387 365.165 -21.2359 1 88 138
232.624 374.391 31.4549 2 112 146
233.93 358.077 -25.1682 1 83 133
234.782 374.331 8.20969 3 97 136
235.607 374.114 31.6035 4 109 151
236.771 374.147 8.30878 8 90 133
234.623 329.633 -31.5272 3 74 118
236.772 368.626 38.3508 36 116 147
239.773 375.914 11.8955 5 116 147
239.804 376.476 32.5034 4 115 152
243.615 390.55 -17.7699 2 105 142
244.328 391.471 -10.1776 1 93 130
244.163 383.973 -20.8426 4 114 151
240.094 327.873 -23.5293 1 83 133
239.434 319.168 -26.4937 49 69 135
239.32 317.291 -27.7041 157 184 167
245.496 375.594 -22.8484 6 132 169
248.155 385.137 -18.0659 2 102 139
248.591 387.583 -2.07136 1 88 128
250.272 388.362 -14.1778 2 92 132
250.258 386.829 -16.7564 1 97 133
251.582 377.428 -20.4813 2 107 151
250.344 377.102 23.9301 11 124 160
249.971 346.605 -25.4133 1 165 208
253.58 378.265 -18.6632 2 100 146
254.548 386.007 -3.49307 1 87 124
255.143 384.541 2.02933 1 86 122
255.838 386.434 -8.40769 2 88 124
254.031 376.724 29.952 2 126 159
256.488 366.795 -17.6756 27 145 194
256.215 344.525 -33.5183 82 123 157
256.19 368.128 51.34 5 13 47
258.865 353.046 -30.4548 15 116 167
259.709 379.178 21.4817 7 129 169
258.174 367.433 50.5796 14 9 52
261.19 379.27 12.1116 24 125 161
262.481 382.713 -7.39429 1 78 118
262.221 375.382 -15.8316 33 89 150
261.547 365.144 -21.3746 24 164 203
264.886 372.03 -15.0164 52 153 188
268.106 376.529 -10.728 90 179 200
268.456 380.165 9.21331 17 131 162
271.353 381.078 13.3088 4 127 164
271.783 364.228 -26.7028 1 140 186
270.47 377.015 43.652 4 112 144
274.041 372.397 -16.4473 49 155 188
275.205 380.314 -4.87321 29 139 177
275.191 378.781 -7.45177 72 168 192
274.954 381.89 23.2774 1 130 162
275.345 382.242 16.0855 11 130 162
277.936 362.828 -31.7205 19 126 168
278.815 382.149 6.81452 17 131 161
279.365 378.588 -10.8495 92 176 203
280.231 382.97 20.28 6 125 162
283.182 371.231 -20.4568 7 136 169
282.819 381.83 26.7611 3 121 155
284.177 371.138 -20.4073 1 136 166
290.915 367.25 -21.6216 1 105 151
292.162 384.367 5.42385 9 128 158
293.606 380.37 -10.8224 37 142 179
294.705 381.132 -11.2815 16 140 176
295.786 379.85 -15.1788 99 187 204
297.516 383.235 -3.23936 1 127 162
298.816 384.684 -6.43493 1 129 162
299.729 377.755 43.0542 1 88 123
304.836 379.362 -16.101 3 134 168
305.691 360.922 -27.2458 2 91 131
304.991 374.286 52.0695 26 95 114
308.574 360.301 -25.7289 1 83 127
308.794 349.627 -29.8542 5 123 161
304.16 308.96 -12.6285 138 156 175
305.557 296.836 -22.8787 126 135 129
313.892 379.386 -16.1638 1 113 144
312.334 357.2 -26.2324 4 71 118
312.468 379.906 33.5625 1 78 109
313.767 381.355 30.367 1 78 107
314.463 383.249 19.9299 1 84 113
315.952 381.347 26.8701 1 77 102
318.501 381.639 -3.56699 1 81 116
318.592 380.96 -6.65424 1 85 117
318.755 377.559 -16.2669 1 83 125
312.052 301.066 -24.2653 13 13 18
320.959 366.189 -21.1525 1 83 122
321.78 373.344 36.2507 1 48 79
323.69 380.893 11.9737 13 94 129
324.509 361.379 -20.6385 16 160 199
324.029 364.07 54.5515 11 31 54
328.835 378.051 4.32785 3 76 96
329.537 374.935 24.7924 5 7 9
333.572 375.83 -14.1554 2 42 60
367.05 374.924 38.5599 31 6 40
367.832 376.223 50.8767 4 3 12
355.936 375.542 40.0121 45 121 143
346.617 375.78 20.9306 111 200 245
344.065 376.657 19.6199 108 191 239
346.018 372.922 28.5771 38 145 188
337.82 374.422 19.6025 31 169 215
333.134 373.212 17.9978 71 201 229
326.04 379.701 6.39736 161 209 250
333.668 378.709 39.7116 28 85 111
330.45 374.359 29.3326 4 99 151
326.471 373.942 16.9636 45 146 181
315.163 369.027 -5.50797 69 176 211
310.505 368.68 -13.4571 30 173 215
323.948 378.187 32.3459 4 86 126
319.506 373.708 18.161 1 122 175
312.383 366.942 -4.54348 28 163 207
314.551 371.466 15.6267 5 149 190
302.196 373.178 -22.4971 89 176 228
296.976 378.861 -28.367 108 188 227
292.439 383.541 -35.4735 124 193 211
309.799 370.391 20.3448 3 148 189
307.664 368.303 20.0508 7 151 192
290.197 383.519 -32.6497 37 162 202
294.47 366.988 -17.7007 21 77 135
310.332 385.776 36.4696 11 108 147
307.003 374.536 31.6142 10 116 148
301.672 360.937 13.8195 38 170 210
303.793 368.323 27.6016 6 144 182
303.917 372.42 31.6273 13 120 161
298.355 356.791 12.9246 37 169 208
290.897 359.016 -9.97583 18 4 6
285.821 371.522 -24.5308 65 194 242
304.273 378.546 36.561 16 113 149
286.55 367.658 -19.3793 181 252 254
285.677 364.699 -15.8457 130 217 243
285.681 353.88 -7.07358 107 200 228
279.576 369.287 -24.5482 121 213 248
279.27 369.255 -25.4996 150 216 249
293.226 356.75 19.8308 2 146 188
280.341 364.423 -19.375 71 195 233
290.012 351.469 12.635 8 143 185
289.764 355.668 22.032 9 135 187
285.421 353.49 21.4006 1 131 181
278.15 350.721 -1.39095 79 44 149
273.914 356.365 -10.7292 5 135 171
290.886 337.156 43.3168 1 103 142
286.191 337.808 35.3458 26 156 187
270.068 358.18 -12.7061 1 119 159
272.707 352.511 -1.80248 65 32 131
272.137 353.02 22.5371 1 95 146
269.895 343.11 30.95 41 148 182
251.794 375.311 -22.1206 5 78 125
267.765 340.091 33.8392 8 123 165
253.904 365.716 -6.71004 1 69 118
268.65 340.255 39.855 3 109 146
272.19 392.853 59.0106 3 93 132
269.999 344.48 47.6865 1 85 121
259.645 358.437 16.9132 1 82 132
245.098 385.996 -25.5824 2 78 116
262.545 345.774 27.9692 1 127 166
251.522 367.827 2.39309 2 92 152
249.23 371.599 -4.35423 1 82 139
255.654 363.318 18.0323 2 133 178
251.795 367.927 6.50592 1 129 173
264.556 346.27 47.275 5 84 124
250.894 364.105 16.3841 8 146 184
262.326 353.341 54.0594 18 80 120
245.434 369.621 3.23999 16 148 200
248.379 363.983 15.0951 17 148 186
247.577 359.958 15.4893 25 150 187
251.589 350.421 30.2859 1 121 162
248.238 356.229 26.9634 10 149 179
244.491 357.842 15.5023 5 142 187
257.23 385.399 64.0748 1 104 138
244.499 355.979 21.8686 7 153 189
254.778 376.186 58.869 1 103 137
233.816 358.221 5.26044 97 123 149
251.403 380.199 65.0741 1 108 143
233.634 352.398 13.9237 4 132 171
243.669 353.594 51.6447 1 60 107
240.951 352.306 43.1033 15 98 129
241.493 353.437 48.1459 1 73 129
223.967 386.7 -3.04359 53 79 96
236.906 352.023 37.0571 3 137 173
242.941 369.85 63.9419 1 110 146
219.169 388.487 -4.71352 66 106 137
230.731 348.721 33.9 128 188 211
212.721 394.973 -17.5724 36 101 163
238.404 364.643 62.4243 7 112 145
218.185 378.638 4.34381 97 80 98
238.614 373.834 70.4541 6 119 146
218.607 374.742 8.54373 132 134 161
227.236 347.707 39.2626 18 135 169
223.911 345.423 32.0014 1 128 167
229.47 352.096 53.1099 4 129 164
217.094 370.856 16.519 144 145 165
233.97 370.693 72.0543 13 117 145
232.125 362.476 65.5682 2 119 146
222.314 345.397 33.5669 5 123 163
229.292 355.228 59.3674 13 130 163
207.22 395.035 -5.29484 91 122 144
216.127 344.89 20.8603 127 140 161
229.383 359.392 66.5545 5 120 148
206.844 386.182 2.48225 118 131 158
217.02 343.191 33.2424 2 134 164
211.498 367.686 18.4262 133 145 162
223.121 350.995 59.3935 11 132 166
211.676 344.778 23.3468 118 141 161
217.996 347.519 46.4453 1 147 181
200.983 390.937 1.05396 98 133 153
190.99 400.202 -16.0136 96 137 141
216.429 350.861 64.7038 7 125 158
200.992 369.3 18.5982 24 52 89
209.654 342.197 46.1557 18 159 198
196.765 373.081 15.6262 84 131 152
204.277 343.852 39.4215 1 97 144
214.899 363.092 77.3951 1 97 133
212.248 351.781 68.12 2 118 147
192.31 383.788 9.34056 112 142 162
184.331 400.001 -13.8646 77 71 44
215.192 378.31 86.2456 1 84 117
195.252 369.195 23.6015 105 99 151
181.631 394.987 -9.67344 57 103 122
195.165 344.325 30.7755 53 121 172
212.314 386.316 91.1053 12 83 102
207.727 352.736 73.7459 1 98 129
192.576 346.201 29.443 18 121 155
181.949 392.225 0.827485 74 111 154
187.521 373.825 19.6258 56 44 105
207.545 379.079 88.6798 6 87 110
203.922 352.621 74.9739 1 88 119
191.902 345.341 37.046 14 77 121
198.913 345.216 65.2741 1 96 127
185.454 351.826 24.1871 98 145 176
183.716 373.71 20.8538 94 141 171
188.399 346.189 36.0422 6 77 117
173.491 390.831 -2.71061 17 106 142
190.699 340.555 49.1559 1 102 135
177.392 384.291 12.0207 122 148 169
186.199 344.237 42.0711 1 93 122
189.917 341.76 59.8767 1 78 116
177.004 358.458 21.4263 6 128 166
180.532 352.021 41.529 1 58 97
191.907 359.305 80.7153 1 79 102
168.744 369.05 16.3686 2 91 116
177.112 349.009 46.9351 28 146 194
172.723 359.58 34.3266 1 37 53
168.959 367.422 33.1705 2 5 19
178.932 345.543 68.5378 2 7 39
179.362 349.672 73.515 3 31 56
175.536 344.326 64.4162 4 45 66
361.009 376.403 -33.7878 128 205 232
356.772 378.538 -44.1554 8 13 14
350.653 378.855 -29.8217 34 126 174
348.888 378.712 -26.5256 11 128 178
349.752 376.297 -21.0101 92 183 221
346.655 373.861 -13.9764 29 170 217
343.869 375.203 -20.5672 1 122 171
342.849 375.729 -19.2703 1 122 169
343.398 375.219 -13.2339 106 187 221
339.517 372.858 -29.9777 3 88 131
341.832 370.538 22.1305 254 254 254
340.302 370.866 16.1679 152 226 253
336.065 373.036 -21.1997 1 95 142
337.084 373.398 20.3192 118 199 227
333.79 373.618 -9.34718 1 119 164
336.184 369.916 13.3147 68 176 218
338.46 368.34 39.6461 65 205 242
332.495 373.458 -13.3844 1 103 152
331.282 369.999 -24.5001 9 69 91
333.478 369.84 4.27765 34 161 205
331.124 370.916 2.76046 9 153 196
336.897 358.97 49.9302 137 245 254
329.555 371.953 -1.97894 11 125 173
329.985 373.533 34.7269 37 164 207
326.727 376.809 13.1014 3 150 192
325.157 378.77 24.178 4 164 196
327.637 364.203 48.2332 73 171 215
323.635 364.891 50.9748 61 167 211
317.39 380.618 20.4026 32 159 196
317.704 380.595 24.5136 29 1 27
323.169 358.301 55.5958 12 156 202
318.377 369.435 46.5362 19 163 205
312.055 381.855 20.3301 53 174 216
308.524 382.527 15.7383 34 172 209
310.174 378.156 40.3993 77 54 108
306.766 371.089 -8.75804 40 107 147
304.877 381.561 5.55184 4 145 182
303.076 376.479 -3.82514 2 129 170
310.065 363.269 56.38 130 216 179
294.675 388.708 23.1536 66 74 155
293.538 387.596 18.8559 1 128 166
291.929 388.383 26.5236 71 38 137
287.297 395.758 -3.24473 32 175 223
290.362 385.654 12.52 2 122 167
288.402 383.407 8.03557 3 125 176
288.52 383.163 8.99821 1 124 173
294.491 366.715 61.2362 12 60 118
286.714 385.611 18.1496 1 103 145
286.949 387.006 24.7069 47 26 123
281.255 398.458 -9.09308 3 94 127
286.756 381.102 34.6622 37 35 128
289.624 372.66 51.9106 9 107 147
279.372 398.558 -6.75964 8 100 144
283.382 382.74 7.44206 2 113 171
290.689 363.86 57.8621 6 1 103
279.492 395.473 0.754863 1 137 180
285.699 377.614 39.1021 1 93 135
281.616 383.52 26.5542 3 86 130
286.568 367.633 53.0892 17 97 141
279.774 381.988 11.8485 1 94 149
280.284 382.187 19.108 1 85 129
286.538 351.329 66.6236 1 100 135
276.481 379.331 15.7339 1 85 136
271.138 393.816 -5.91403 1 83 124
282.101 359.849 55.8198 1 78 124
274.56 378.258 14.6584 1 91 138
282.968 352.71 63.2549 1 78 122
270.355 391.014 3.8601 1 123 163
273.936 371.662 30.7239 1 79 134
264.865 388.48 5.96788 3 119 156
278.505 338.32 63.2732 1 67 116
267.622 368.952 21.4611 2 141 172
261.06 390.349 0.673984 3 96 131
266.251 367.368 26.4219 41 142 181
267.508 363.513 33.6021 63 145 183
273.444 341.202 57.351 1 98 147
261.024 383.492 10.3688 1 120 156
261.931 375.645 16.5809 1 132 168
264.25 367.713 27.7928 11 143 181
255.65 384.515 -4.29664 1 78 111
256.12 385.422 4.186 1 98 134
267.754 345.054 59.0227 45 159 201
265.282 346.373 56.5428 29 137 178
249.301 375.873 11.9514 1 108 151
259.205 342.217 60.3893 36 107 143
260.699 335.992 64.8627 5 141 180
259.994 334.613 65.6387 11 142 174
260.662 331.977 68.0056 15 167 197
246.399 374.617 10.9498 1 122 163
247.26 377.849 30.3613 49 176 209
248.95 371.845 37.9832 40 128 155
245.771 376.51 34.3596 31 139 168
243.34 374.314 10.2086 2 132 162
244.556 373.974 39.0599 96 118 143
252.54 337.397 54.7903 133 139 161
241.062 378.661 31.3253 48 88 108
245.35 357.881 36.965 96 98 133
247.866 348.287 46.6933 44 80 99
238.87 372.213 -0.164542 2 120 154
241.701 360.679 36.0426 95 66 88
245.986 343.664 50.9465 137 159 170
243.316 349.486 43.3985 101 114 142
235.067 369.357 -3.53871 1 116 150
248.271 326.993 67.2212 30 113 144
239.035 358.936 36.9663 110 88 70
245.603 328.092 61.593 98 126 152
231.81 372.598 1.83589 8 126 159
245.489 322.653 73.734 49 139 181
235.663 355.814 38.666 113 129 149
235.983 346.344 46.6166 54 98 130
226.787 375.695 10.5065 3 126 157
227.375 376.359 19.9519 1 111 149
240.467 324.826 66.5887 34 93 137
230.247 361.311 34.4879 129 145 171
230.449 352.084 41.4759 117 138 157
222.476 370.759 -4.75918 3 119 149
228.34 335.659 54.1953 111 128 152
230.037 319.249 76.8406 59 129 152
214.668 374.204 35.5045 60 131 168
209.686 375.705 0.135975 9 117 147
209.018 377.382 8.95301 2 134 166
205.017 378.071 11.6946 1 131 160
205.488 377.095 15.5452 5 141 169
204.979 374.979 30.6535 10 115 142
213.513 337.893 52.4203 132 146 155
202.154 377.989 14.1019 1 126 157
203.882 373.158 25.1327 1 87 138
209.701 349.209 43.2868 125 148 163
210.645 345.376 46.3559 129 135 131
199.802 375.299 3.32061 11 101 133
208.959 343.815 47.2057 64 1 26
211.397 333.757 54.7482 60 63 85
210.81 332.135 56.4869 127 162 174
198.232 377.26 14.3972 2 113 146
207.942 339.618 50.4224 139 164 164
199.846 366.99 37.5691 12 127 162
200.28 362 44.5626 68 137 172
193.61 365.74 -7.69191 1 62 93
194.708 366.567 36.0129 11 68 102
196.594 360.783 46.7831 63 109 99
189.997 373.477 4.05885 1 68 95
203.477 328.034 70.8889 4 100 133
189.453 364.504 28.8619 1 80 129
190.162 360.2 41.1898 4 32 67
184.749 360.084 -3.88444 8 99 121
183.096 370.068 12.3507 4 139 165
176.939 368.288 7.45936 8 2 32
169.929 360.988 -14.4611 49 164 209
165.895 366.725 -26.66 11 9 15
187.44 357.161 -6.23045 19 160 210
188.749 356.112 -3.54973 1 166 213
180.735 362.769 -22.7714 11 89 104
185.316 360.859 -14.9377 3 120 162
191.349 356.008 -5.60616 26 154 188
198.83 355.26 -0.972361 118 178 207
219.472 344.257 36.8674 115 210 254
203.941 355.649 -1.82395 23 130 179
210.131 353.956 7.54709 2 153 198
225.486 341.399 38.781 39 173 218
225.946 342.301 40.7748 54 182 218
199.463 365.534 -14.7942 7 86 143
212.467 353.284 1.2944 4 147 188
229.751 337.859 26.3603 63 165 202
236.323 348.596 53.0909 199 237 245
209.296 365.643 -12.0928 75 96 112
219.418 351.401 -2.46409 7 139 180
231.627 336.285 18.1137 1 1 66
226.691 341.746 6.24751 13 152 188
234.033 335.846 18.2597 154 222 191
243.417 344.82 48.1495 17 154 195
240.397 338.84 31.9904 39 164 203
243.279 340.832 38.4504 9 161 203
244.181 341.108 38.1178 11 161 204
239.676 335.012 11.8205 73 88 98
247.699 342.808 40.049 21 163 206
243.829 338.779 23.203 65 192 206
249.873 344.858 44.6391 9 154 205
244.487 334.135 12.1123 16 62 137
229.606 352.644 -15.9055 24 132 169
257.158 347.298 48.3775 21 96 150
246.415 334.788 2.84642 49 171 198
235.054 351.475 -20.1423 20 110 153
253.064 333.997 14.2114 57 180 215
255.999 334.694 22.7496 40 164 210
257.556 332.684 25.3063 7 171 212
238.363 347.79 -17.2311 3 120 162
235.943 344.342 -35.6772 40 180 230
265.089 334.163 28.9206 1 120 158
244.518 346.563 -19.5982 1 118 166
257.999 333.222 5.90222 7 105 156
267.158 335.282 32.4518 3 106 151
239.111 340.191 -45.5631 36 91 129
268.306 338.119 28.8976 18 12 100
248.126 347.666 -20.9283 2 118 172
246.061 340.667 -35.3417 88 156 195
255.097 340.267 -14.1711 1 96 138
260.28 337.367 -5.52647 30 22 114
261.341 337.279 -2.72171 41 22 117
249.828 341.406 -33.5343 55 153 188
268.82 338.889 15.892 1 101 144
276.416 352.362 47.6694 2 129 172
250.729 341.682 -33.8668 20 144 184
273.538 344.49 30.3273 13 71 137
272.672 344.912 25.3202 2 1 109
278.788 348.866 39.1749 1 105 145
280.466 352.839 44.013 1 111 147
281.026 364.074 54.8502 54 3 120
276.385 346.947 25.0491 25 120 151
281.474 354.046 44.7394 1 108 142
281.294 358.761 48.1642 30 83 137
281.209 353.478 40.5433 4 87 133
281.842 359.067 46.8968 2 89 133
259.165 343.436 -30.5849 14 137 179
254.371 347.005 -43.6343 16 85 123
267.862 348.116 -9.1269 1 76 126
263.174 352.617 -21.1174 1 124 164
271.947 348.128 -1.04514 1 77 127
275.378 346.903 7.24505 1 78 125
281.902 349.533 24.113 1 72 119
286.05 362.702 43.2799 1 76 118
281.847 354.35 18.937 1 78 126
280.273 354.831 12.06 9 80 133
288.292 372.029 48.073 5 113 165
267.281 345.918 -33.5775 1 119 156
284.158 397.168 54.7043 2 143 190
266.769 346.311 -37.6497 1 109 144
283.349 357.158 16.3175 1 105 156
285.767 397.385 56.2417 69 167 202
286.53 360.415 21.634 2 126 173
271.454 348.855 -31.8549 1 118 156
280.786 355.602 -0.94547 14 153 180
281.953 356.445 2.91818 1 137 178
287.786 360.662 22.2364 6 137 175
278.719 355.646 -21.5544 6 131 169
288.853 352.335 0.179006 8 130 172
294.965 362.17 24.9161 1 135 174
289.543 350.748 -2.27127 45 114 168
295.075 357.221 15.0928 7 142 158
285.652 354.593 -15.6531 4 140 178
280.541 355.368 -31.8791 1 107 147
296.366 358.166 10.3555 68 113 131
297.39 360.901 15.4021 48 99 129
301.169 402.306 56.9876 72 71 130
299.669 397.14 45.6268 7 124 166
279.213 361.932 -45.0755 20 70 100
285.599 357.052 -34.8091 2 97 136
303.964 402.537 52.7288 1 82 136
302.885 371.361 17.9303 70 87 97
312.027 371.893 40.1598 1 107 162
313.282 372.14 40.7621 3 94 134
302.207 351.786 -9.16817 85 103 131
307.322 374.866 23.8491 70 93 119
287.4 364.647 -41.6696 16 84 129
298.194 349.649 -24.8314 32 153 182
304.513 370.748 9.8078 115 123 149
292.018 359.914 -36.0778 1 126 157
303.818 349.644 -21.6109 32 102 143
309.746 373.597 14.3353 108 105 122
305.807 365.813 -5.81159 119 131 155
316.412 374.335 30.0203 42 118 153
294.014 364.322 -42.0427 1 112 146
304.271 363.47 -14.9303 98 72 102
323.786 376.177 30.4975 38 127 156
320.248 379.992 18.0506 93 118 154
307.847 359.159 -38.8807 2 112 144
313.221 362.473 -21.5561 41 87 79
314.835 353.288 -27.8033 52 126 157
331.388 381.411 37.4127 47 90 99
314.865 363.389 -25.3584 88 128 161
322.356 375.93 5.35999 96 117 155
327.18 382.461 20.8542 89 110 141
312.551 360.872 -42.7455 1 118 150
317.993 367.942 -22.1203 128 132 148
335.349 382.484 37.0176 59 148 183
305.773 372.127 -54.8027 2 112 143
324.004 370.965 -9.32442 1 5 47
322.493 354.868 -32.7896 1 127 166
323.306 355.741 -29.8609 45 128 168
333.936 383.765 16.2002 114 138 158
334.202 381.975 6.41652 114 138 161
323.481 361.591 -42.5789 2 106 155
338.551 386.076 15.5967 120 149 172
312.774 379.515 -65.7761 19 86 104
343.822 382.579 20.98 55 133 157
