ply
    format ascii 1.0
    element vertex 10710
    property float x
    property float y
    property float z
    property uchar red
    property uchar green
    property uchar blue
    end_header
290.000000 -275.000000 65033.000000 50 82 1
291.000000 -275.000000 65034.000000 54 80 1
292.000000 -275.000000 65032.000000 47 80 1
293.000000 -275.000000 65030.000000 40 81 1
294.000000 -275.000000 65029.000000 45 82 1
295.000000 -275.000000 65029.000000 50 83 1
296.000000 -275.000000 65028.000000 52 85 1
297.000000 -275.000000 65027.000000 55 86 1
298.000000 -275.000000 65026.000000 58 86 1
299.000000 -275.000000 65025.000000 62 86 1
300.000000 -275.000000 65024.000000 68 93 1
301.000000 -275.000000 65023.000000 75 99 32
302.000000 -275.000000 65023.000000 76 86 63
303.000000 -275.000000 65021.000000 76 78 38
304.000000 -275.000000 65020.000000 74 81 14
305.000000 -275.000000 65019.000000 72 84 35
306.000000 -275.000000 65018.000000 82 96 56
307.000000 -275.000000 65017.000000 91 100 29
308.000000 -275.000000 65017.000000 84 91 2
309.000000 -275.000000 65014.000000 78 91 1
310.000000 -275.000000 65016.000000 72 84 1
311.000000 -275.000000 65016.000000 67 78 6
312.000000 -275.000000 65013.000000 73 71 11
313.000000 -275.000000 65013.000000 78 74 21
314.000000 -275.000000 65013.000000 81 76 31
253.000000 -276.000000 65026.000000 22 42 5
254.000000 -276.000000 65027.000000 29 50 10
255.000000 -276.000000 65028.000000 36 55 5
256.000000 -276.000000 65029.000000 33 55 1
257.000000 -276.000000 65029.000000 30 51 1
258.000000 -276.000000 65030.000000 33 49 1
259.000000 -276.000000 65031.000000 36 50 1
260.000000 -276.000000 65032.000000 35 52 1
261.000000 -276.000000 65032.000000 34 53 1
262.000000 -276.000000 65032.000000 34 55 1
263.000000 -276.000000 65032.000000 35 52 1
264.000000 -276.000000 65032.000000 38 50 1
265.000000 -276.000000 65032.000000 42 46 12
266.000000 -276.000000 65032.000000 37 47 24
267.000000 -276.000000 65032.000000 33 48 12
268.000000 -276.000000 65032.000000 31 51 1
269.000000 -276.000000 65032.000000 29 52 1
270.000000 -276.000000 65033.000000 28 56 1
271.000000 -276.000000 65035.000000 27 55 1
272.000000 -276.000000 65035.000000 29 55 1
273.000000 -276.000000 65035.000000 32 51 1
274.000000 -276.000000 65035.000000 30 51 1
275.000000 -276.000000 65035.000000 29 51 2
276.000000 -276.000000 65035.000000 27 51 3
277.000000 -276.000000 65035.000000 25 53 2
278.000000 -276.000000 65035.000000 21 53 1
279.000000 -276.000000 65035.000000 17 49 1
280.000000 -276.000000 65035.000000 21 46 1
281.000000 -276.000000 65036.000000 25 47 1
282.000000 -276.000000 65036.000000 25 48 1
283.000000 -276.000000 65036.000000 26 53 1
284.000000 -276.000000 65035.000000 29 58 1
285.000000 -276.000000 65035.000000 32 58 1
286.000000 -276.000000 65036.000000 35 59 1
287.000000 -276.000000 65035.000000 39 67 1
288.000000 -276.000000 65035.000000 44 71 1
289.000000 -276.000000 65035.000000 49 80 1
290.000000 -276.000000 65032.000000 54 83 1
291.000000 -276.000000 65034.000000 59 80 1
292.000000 -276.000000 65032.000000 46 79 1
293.000000 -276.000000 65029.000000 34 80 1
294.000000 -276.000000 65029.000000 40 84 1
295.000000 -276.000000 65029.000000 47 84 1
296.000000 -276.000000 65028.000000 50 85 1
297.000000 -276.000000 65027.000000 53 85 1
298.000000 -276.000000 65026.000000 56 86 1
299.000000 -276.000000 65026.000000 59 88 1
300.000000 -276.000000 65024.000000 66 92 1
301.000000 -276.000000 65023.000000 73 86 19
302.000000 -276.000000 65023.000000 69 80 37
303.000000 -276.000000 65021.000000 66 69 22
304.000000 -276.000000 65020.000000 66 46 7
305.000000 -276.000000 65019.000000 66 67 19
306.000000 -276.000000 65018.000000 75 92 32
307.000000 -276.000000 65017.000000 85 90 18
308.000000 -276.000000 65016.000000 82 89 5
309.000000 -276.000000 65016.000000 79 89 3
310.000000 -276.000000 65016.000000 77 88 1
311.000000 -276.000000 65016.000000 76 80 6
312.000000 -276.000000 65016.000000 77 72 11
313.000000 -276.000000 65016.000000 79 73 20
314.000000 -276.000000 65016.000000 82 77 29
252.000000 -277.000000 65026.000000 34 43 1
253.000000 -277.000000 65026.000000 31 43 10
254.000000 -277.000000 65026.000000 37 49 19
255.000000 -277.000000 65029.000000 43 57 10
256.000000 -277.000000 65029.000000 35 53 1
257.000000 -277.000000 65029.000000 28 51 1
258.000000 -277.000000 65030.000000 31 49 1
259.000000 -277.000000 65031.000000 34 52 1
260.000000 -277.000000 65031.000000 36 51 1
261.000000 -277.000000 65032.000000 37 50 1
262.000000 -277.000000 65032.000000 36 54 1
263.000000 -277.000000 65032.000000 35 53 1
264.000000 -277.000000 65032.000000 35 50 1
265.000000 -277.000000 65032.000000 35 45 1
266.000000 -277.000000 65032.000000 32 45 1
267.000000 -277.000000 65032.000000 29 45 1
268.000000 -277.000000 65032.000000 29 50 1
269.000000 -277.000000 65032.000000 28 53 1
270.000000 -277.000000 65033.000000 26 52 1
271.000000 -277.000000 65035.000000 24 52 1
272.000000 -277.000000 65035.000000 27 53 1
273.000000 -277.000000 65035.000000 31 53 1
274.000000 -277.000000 65035.000000 29 53 1
275.000000 -277.000000 65035.000000 27 53 1
276.000000 -277.000000 65035.000000 25 53 1
277.000000 -277.000000 65035.000000 23 53 1
278.000000 -277.000000 65035.000000 19 53 1
279.000000 -277.000000 65035.000000 15 49 1
280.000000 -277.000000 65035.000000 19 48 1
281.000000 -277.000000 65036.000000 22 48 1
282.000000 -277.000000 65036.000000 26 48 1
283.000000 -277.000000 65037.000000 30 55 1
284.000000 -277.000000 65037.000000 32 58 1
285.000000 -277.000000 65036.000000 34 63 1
286.000000 -277.000000 65036.000000 35 65 1
287.000000 -277.000000 65036.000000 36 68 1
288.000000 -277.000000 65036.000000 41 74 1
289.000000 -277.000000 65034.000000 47 84 1
290.000000 -277.000000 65034.000000 50 84 1
291.000000 -277.000000 65034.000000 54 81 1
292.000000 -277.000000 65033.000000 45 80 1
293.000000 -277.000000 65032.000000 36 79 1
294.000000 -277.000000 65032.000000 41 82 1
295.000000 -277.000000 65029.000000 46 88 1
296.000000 -277.000000 65028.000000 48 85 2
297.000000 -277.000000 65028.000000 51 89 1
298.000000 -277.000000 65027.000000 56 88 1
299.000000 -277.000000 65027.000000 62 91 1
300.000000 -277.000000 65025.000000 66 90 1
301.000000 -277.000000 65025.000000 71 85 6
302.000000 -277.000000 65023.000000 66 79 11
303.000000 -277.000000 65020.000000 62 60 6
304.000000 -277.000000 65020.000000 57 53 1
305.000000 -277.000000 65019.000000 52 51 4
306.000000 -277.000000 65018.000000 67 78 8
307.000000 -277.000000 65018.000000 81 96 8
308.000000 -277.000000 65017.000000 80 89 8
309.000000 -277.000000 65017.000000 79 90 4
310.000000 -277.000000 65016.000000 77 87 1
311.000000 -277.000000 65016.000000 76 83 6
312.000000 -277.000000 65016.000000 78 75 12
313.000000 -277.000000 65016.000000 79 72 20
314.000000 -277.000000 65016.000000 82 77 28
251.000000 -278.000000 65026.000000 51 51 1
252.000000 -278.000000 65026.000000 45 46 1
253.000000 -278.000000 65026.000000 40 47 5
254.000000 -278.000000 65029.000000 45 49 10
255.000000 -278.000000 65029.000000 50 49 5
256.000000 -278.000000 65029.000000 38 49 1
257.000000 -278.000000 65029.000000 26 49 1
258.000000 -278.000000 65030.000000 29 49 1
259.000000 -278.000000 65030.000000 33 49 1
260.000000 -278.000000 65032.000000 37 49 2
261.000000 -278.000000 65032.000000 41 50 1
262.000000 -278.000000 65032.000000 38 53 1
263.000000 -278.000000 65032.000000 35 52 1
264.000000 -278.000000 65032.000000 31 51 1
265.000000 -278.000000 65032.000000 28 44 1
266.000000 -278.000000 65032.000000 27 48 1
267.000000 -278.000000 65032.000000 26 48 1
268.000000 -278.000000 65032.000000 27 49 1
269.000000 -278.000000 65033.000000 28 53 1
270.000000 -278.000000 65034.000000 24 52 1
271.000000 -278.000000 65035.000000 21 53 1
272.000000 -278.000000 65035.000000 26 54 1
273.000000 -278.000000 65035.000000 31 52 1
274.000000 -278.000000 65035.000000 28 52 1
275.000000 -278.000000 65035.000000 26 52 1
276.000000 -278.000000 65035.000000 23 54 1
277.000000 -278.000000 65035.000000 21 53 1
278.000000 -278.000000 65035.000000 17 53 1
279.000000 -278.000000 65036.000000 14 52 1
280.000000 -278.000000 65036.000000 17 52 1
281.000000 -278.000000 65037.000000 20 48 1
282.000000 -278.000000 65037.000000 27 49 1
283.000000 -278.000000 65037.000000 34 54 1
284.000000 -278.000000 65037.000000 35 59 1
285.000000 -278.000000 65037.000000 37 60 1
286.000000 -278.000000 65036.000000 35 65 1
287.000000 -278.000000 65036.000000 34 67 1
288.000000 -278.000000 65035.000000 39 78 1
289.000000 -278.000000 65035.000000 45 82 1
290.000000 -278.000000 65034.000000 47 85 1
291.000000 -278.000000 65034.000000 49 81 1
292.000000 -278.000000 65034.000000 44 82 1
293.000000 -278.000000 65034.000000 39 80 1
294.000000 -278.000000 65028.000000 42 81 1
295.000000 -278.000000 65028.000000 46 83 1
296.000000 -278.000000 65027.000000 47 85 1
297.000000 -278.000000 65026.000000 49 86 1
298.000000 -278.000000 65026.000000 57 88 1
299.000000 -278.000000 65026.000000 65 90 1
300.000000 -278.000000 65024.000000 67 89 1
301.000000 -278.000000 65023.000000 69 84 3
302.000000 -278.000000 65022.000000 64 78 6
303.000000 -278.000000 65021.000000 59 64 4
304.000000 -278.000000 65020.000000 49 55 2
305.000000 -278.000000 65020.000000 39 55 11
306.000000 -278.000000 65019.000000 58 65 21
307.000000 -278.000000 65018.000000 78 77 12
308.000000 -278.000000 65017.000000 78 89 4
309.000000 -278.000000 65016.000000 79 88 3
310.000000 -278.000000 65016.000000 78 87 1
311.000000 -278.000000 65016.000000 77 85 8
312.000000 -278.000000 65016.000000 78 79 14
313.000000 -278.000000 65016.000000 80 78 17
314.000000 -278.000000 65016.000000 82 78 21
251.000000 -279.000000 65026.000000 50 59 1
252.000000 -279.000000 65026.000000 45 50 1
253.000000 -279.000000 65029.000000 41 49 1
254.000000 -279.000000 65029.000000 40 50 1
255.000000 -279.000000 65029.000000 39 51 1
256.000000 -279.000000 65029.000000 28 42 1
257.000000 -279.000000 65029.000000 17 34 1
258.000000 -279.000000 65030.000000 20 35 1
259.000000 -279.000000 65031.000000 22 36 2
260.000000 -279.000000 65032.000000 30 45 3
261.000000 -279.000000 65031.000000 38 50 2
262.000000 -279.000000 65032.000000 32 50 1
263.000000 -279.000000 65032.000000 27 51 1
264.000000 -279.000000 65032.000000 22 47 1
265.000000 -279.000000 65032.000000 17 44 1
266.000000 -279.000000 65033.000000 17 39 1
267.000000 -279.000000 65033.000000 17 35 1
268.000000 -279.000000 65033.000000 25 47 1
269.000000 -279.000000 65034.000000 32 53 1
270.000000 -279.000000 65035.000000 27 53 1
271.000000 -279.000000 65035.000000 23 54 1
272.000000 -279.000000 65035.000000 27 52 1
273.000000 -279.000000 65035.000000 32 51 1
274.000000 -279.000000 65035.000000 30 51 1
275.000000 -279.000000 65035.000000 28 52 1
276.000000 -279.000000 65035.000000 25 54 1
277.000000 -279.000000 65035.000000 22 56 1
278.000000 -279.000000 65035.000000 20 53 1
279.000000 -279.000000 65035.000000 18 53 1
280.000000 -279.000000 65035.000000 19 51 1
281.000000 -279.000000 65037.000000 20 49 1
282.000000 -279.000000 65037.000000 23 51 1
283.000000 -279.000000 65037.000000 27 54 1
284.000000 -279.000000 65037.000000 30 56 1
285.000000 -279.000000 65037.000000 33 58 1
286.000000 -279.000000 65037.000000 34 61 1
287.000000 -279.000000 65036.000000 36 67 1
288.000000 -279.000000 65035.000000 39 77 1
289.000000 -279.000000 65035.000000 43 81 1
290.000000 -279.000000 65034.000000 46 81 2
291.000000 -279.000000 65034.000000 48 82 1
292.000000 -279.000000 65034.000000 42 80 1
293.000000 -279.000000 65034.000000 36 78 1
294.000000 -279.000000 65028.000000 39 77 1
295.000000 -279.000000 65028.000000 41 77 1
296.000000 -279.000000 65028.000000 39 79 1
297.000000 -279.000000 65027.000000 38 82 1
298.000000 -279.000000 65026.000000 50 87 1
299.000000 -279.000000 65026.000000 63 92 1
300.000000 -279.000000 65026.000000 66 90 1
301.000000 -279.000000 65023.000000 69 83 1
302.000000 -279.000000 65023.000000 66 77 1
303.000000 -279.000000 65022.000000 63 68 2
304.000000 -279.000000 65020.000000 56 54 3
305.000000 -279.000000 65020.000000 50 60 18
306.000000 -279.000000 65020.000000 65 62 34
307.000000 -279.000000 65019.000000 80 67 17
308.000000 -279.000000 65017.000000 79 86 1
309.000000 -279.000000 65016.000000 79 85 1
310.000000 -279.000000 65016.000000 79 87 2
311.000000 -279.000000 65016.000000 79 87 9
312.000000 -279.000000 65016.000000 80 82 17
313.000000 -279.000000 65016.000000 81 79 15
314.000000 -279.000000 65016.000000 83 79 14
251.000000 -280.000000 65026.000000 50 59 2
252.000000 -280.000000 65026.000000 46 54 1
253.000000 -280.000000 65029.000000 42 52 1
254.000000 -280.000000 65029.000000 35 56 1
255.000000 -280.000000 65029.000000 29 46 1
256.000000 -280.000000 65029.000000 19 26 2
257.000000 -280.000000 65029.000000 9 26 1
258.000000 -280.000000 65030.000000 10 27 1
259.000000 -280.000000 65031.000000 12 34 1
260.000000 -280.000000 65032.000000 23 41 2
261.000000 -280.000000 65030.000000 35 48 2
262.000000 -280.000000 65031.000000 27 51 2
263.000000 -280.000000 65032.000000 20 49 1
264.000000 -280.000000 65032.000000 13 7 1
265.000000 -280.000000 65032.000000 7 7 1
266.000000 -280.000000 65033.000000 8 7 1
267.000000 -280.000000 65033.000000 9 20 1
268.000000 -280.000000 65034.000000 23 45 1
269.000000 -280.000000 65035.000000 37 47 1
270.000000 -280.000000 65035.000000 31 49 1
271.000000 -280.000000 65035.000000 25 49 1
272.000000 -280.000000 65035.000000 29 50 1
273.000000 -280.000000 65035.000000 34 50 1
274.000000 -280.000000 65035.000000 32 51 1
275.000000 -280.000000 65035.000000 30 53 1
276.000000 -280.000000 65035.000000 26 54 1
277.000000 -280.000000 65035.000000 23 53 1
278.000000 -280.000000 65035.000000 22 50 1
279.000000 -280.000000 65035.000000 22 50 1
280.000000 -280.000000 65037.000000 21 50 1
281.000000 -280.000000 65037.000000 20 49 1
282.000000 -280.000000 65037.000000 20 54 1
283.000000 -280.000000 65038.000000 20 54 1
284.000000 -280.000000 65037.000000 25 54 1
285.000000 -280.000000 65037.000000 30 58 1
286.000000 -280.000000 65036.000000 34 57 1
287.000000 -280.000000 65036.000000 38 68 1
288.000000 -280.000000 65035.000000 40 76 1
289.000000 -280.000000 65035.000000 42 81 1
290.000000 -280.000000 65035.000000 45 87 1
291.000000 -280.000000 65034.000000 48 82 1
292.000000 -280.000000 65034.000000 41 79 1
293.000000 -280.000000 65034.000000 34 78 1
294.000000 -280.000000 65029.000000 35 78 1
295.000000 -280.000000 65028.000000 37 77 1
296.000000 -280.000000 65028.000000 32 77 1
297.000000 -280.000000 65027.000000 27 84 1
298.000000 -280.000000 65027.000000 44 87 1
299.000000 -280.000000 65026.000000 62 91 1
300.000000 -280.000000 65026.000000 65 91 1
301.000000 -280.000000 65026.000000 69 85 1
302.000000 -280.000000 65020.000000 68 76 1
303.000000 -280.000000 65020.000000 67 64 1
304.000000 -280.000000 65020.000000 64 53 2
305.000000 -280.000000 65020.000000 62 56 12
306.000000 -280.000000 65020.000000 72 60 22
307.000000 -280.000000 65019.000000 83 71 12
308.000000 -280.000000 65017.000000 81 83 1
309.000000 -280.000000 65016.000000 79 87 1
310.000000 -280.000000 65016.000000 80 89 1
311.000000 -280.000000 65016.000000 81 87 13
312.000000 -280.000000 65016.000000 82 86 25
313.000000 -280.000000 65016.000000 83 79 18
251.000000 -281.000000 65026.000000 50 59 3
252.000000 -281.000000 65027.000000 44 56 1
253.000000 -281.000000 65029.000000 39 51 1
254.000000 -281.000000 65029.000000 30 46 1
255.000000 -281.000000 65029.000000 22 42 2
256.000000 -281.000000 65029.000000 14 13 4
257.000000 -281.000000 65029.000000 5 4 2
258.000000 -281.000000 65030.000000 6 11 1
259.000000 -281.000000 65031.000000 7 19 1
260.000000 -281.000000 65031.000000 14 32 1
261.000000 -281.000000 65029.000000 21 46 2
262.000000 -281.000000 65030.000000 17 46 3
263.000000 -281.000000 65032.000000 13 47 2
264.000000 -281.000000 65032.000000 9 5 1
265.000000 -281.000000 65032.000000 5 1 1
266.000000 -281.000000 65032.000000 5 3 1
267.000000 -281.000000 65033.000000 6 5 1
268.000000 -281.000000 65034.000000 15 30 1
269.000000 -281.000000 65035.000000 25 37 1
270.000000 -281.000000 65035.000000 23 45 1
271.000000 -281.000000 65035.000000 21 46 1
272.000000 -281.000000 65035.000000 25 46 1
273.000000 -281.000000 65035.000000 29 46 1
274.000000 -281.000000 65035.000000 28 50 1
275.000000 -281.000000 65035.000000 28 55 1
276.000000 -281.000000 65035.000000 27 53 1
277.000000 -281.000000 65036.000000 26 52 1
278.000000 -281.000000 65036.000000 25 49 1
279.000000 -281.000000 65036.000000 24 50 1
280.000000 -281.000000 65037.000000 22 47 1
281.000000 -281.000000 65038.000000 21 45 1
282.000000 -281.000000 65038.000000 22 51 1
283.000000 -281.000000 65038.000000 22 54 1
284.000000 -281.000000 65038.000000 27 55 1
285.000000 -281.000000 65037.000000 31 58 1
286.000000 -281.000000 65036.000000 34 61 1
287.000000 -281.000000 65036.000000 38 70 1
288.000000 -281.000000 65035.000000 41 76 1
289.000000 -281.000000 65035.000000 44 81 1
290.000000 -281.000000 65035.000000 49 81 1
291.000000 -281.000000 65035.000000 54 82 1
292.000000 -281.000000 65034.000000 47 78 1
293.000000 -281.000000 65034.000000 40 79 1
294.000000 -281.000000 65029.000000 40 78 1
295.000000 -281.000000 65029.000000 40 81 1
296.000000 -281.000000 65029.000000 38 83 1
297.000000 -281.000000 65028.000000 36 86 1
298.000000 -281.000000 65026.000000 48 87 1
299.000000 -281.000000 65026.000000 61 91 1
300.000000 -281.000000 65026.000000 66 92 1
301.000000 -281.000000 65026.000000 72 88 1
302.000000 -281.000000 65020.000000 71 83 1
303.000000 -281.000000 65020.000000 70 61 1
304.000000 -281.000000 65020.000000 70 46 1
305.000000 -281.000000 65020.000000 70 44 6
306.000000 -281.000000 65019.000000 78 75 11
307.000000 -281.000000 65018.000000 86 96 6
308.000000 -281.000000 65017.000000 83 93 2
309.000000 -281.000000 65017.000000 80 91 1
310.000000 -281.000000 65016.000000 80 91 1
311.000000 -281.000000 65016.000000 80 91 17
312.000000 -281.000000 65016.000000 81 85 34
313.000000 -281.000000 65016.000000 82 80 22
251.000000 -282.000000 65026.000000 51 59 3
252.000000 -282.000000 65027.000000 43 59 1
253.000000 -282.000000 65029.000000 36 46 1
254.000000 -282.000000 65029.000000 26 45 1
255.000000 -282.000000 65029.000000 16 31 2
256.000000 -282.000000 65029.000000 9 1 4
257.000000 -282.000000 65029.000000 2 3 2
258.000000 -282.000000 65031.000000 2 4 1
259.000000 -282.000000 65031.000000 2 7 1
260.000000 -282.000000 65031.000000 4 10 2
261.000000 -282.000000 65030.000000 7 19 2
262.000000 -282.000000 65030.000000 6 28 2
263.000000 -282.000000 65032.000000 6 15 1
264.000000 -282.000000 65032.000000 4 3 1
265.000000 -282.000000 65032.000000 3 1 1
266.000000 -282.000000 65032.000000 3 1 1
267.000000 -282.000000 65033.000000 3 3 1
268.000000 -282.000000 65034.000000 8 16 1
269.000000 -282.000000 65035.000000 14 26 1
270.000000 -282.000000 65035.000000 16 42 1
271.000000 -282.000000 65035.000000 18 43 1
272.000000 -282.000000 65035.000000 21 44 1
273.000000 -282.000000 65035.000000 25 46 1
274.000000 -282.000000 65035.000000 25 49 1
275.000000 -282.000000 65035.000000 26 49 1
276.000000 -282.000000 65036.000000 27 49 1
277.000000 -282.000000 65036.000000 29 49 1
278.000000 -282.000000 65036.000000 27 49 1
279.000000 -282.000000 65036.000000 26 49 1
280.000000 -282.000000 65037.000000 24 45 1
281.000000 -282.000000 65038.000000 23 45 1
282.000000 -282.000000 65038.000000 24 48 1
283.000000 -282.000000 65038.000000 25 51 12
284.000000 -282.000000 65038.000000 29 56 23
285.000000 -282.000000 65038.000000 33 58 12
286.000000 -282.000000 65036.000000 35 65 1
287.000000 -282.000000 65036.000000 38 70 1
288.000000 -282.000000 65035.000000 42 77 1
289.000000 -282.000000 65035.000000 46 79 1
290.000000 -282.000000 65035.000000 53 82 1
291.000000 -282.000000 65035.000000 60 81 1
292.000000 -282.000000 65034.000000 53 78 1
293.000000 -282.000000 65034.000000 46 78 1
294.000000 -282.000000 65029.000000 45 78 1
295.000000 -282.000000 65029.000000 44 81 1
296.000000 -282.000000 65029.000000 44 85 1
297.000000 -282.000000 65029.000000 45 86 1
298.000000 -282.000000 65027.000000 52 87 1
299.000000 -282.000000 65027.000000 60 88 1
300.000000 -282.000000 65027.000000 67 93 1
301.000000 -282.000000 65027.000000 75 92 1
303.000000 -282.000000 65020.000000 73 72 1
304.000000 -282.000000 65020.000000 75 39 1
305.000000 -282.000000 65020.000000 78 61 4
306.000000 -282.000000 65020.000000 83 90 7
307.000000 -282.000000 65019.000000 89 91 4
308.000000 -282.000000 65017.000000 85 93 1
309.000000 -282.000000 65017.000000 81 91 1
310.000000 -282.000000 65016.000000 80 91 1
311.000000 -282.000000 65016.000000 80 88 11
312.000000 -282.000000 65016.000000 81 84 22
313.000000 -282.000000 65016.000000 82 78 19
251.000000 -283.000000 65026.000000 45 59 4
252.000000 -283.000000 65029.000000 34 50 2
253.000000 -283.000000 65029.000000 24 42 1
254.000000 -283.000000 65029.000000 17 31 1
255.000000 -283.000000 65029.000000 11 21 3
256.000000 -283.000000 65029.000000 6 4 5
257.000000 -283.000000 65030.000000 1 2 3
258.000000 -283.000000 65031.000000 1 3 1
259.000000 -283.000000 65030.000000 1 3 2
260.000000 -283.000000 65031.000000 3 4 4
261.000000 -283.000000 65029.000000 4 6 2
262.000000 -283.000000 65030.000000 4 4 1
263.000000 -283.000000 65031.000000 3 3 1
264.000000 -283.000000 65032.000000 2 2 1
265.000000 -283.000000 65032.000000 2 2 1
266.000000 -283.000000 65032.000000 2 1 1
267.000000 -283.000000 65032.000000 2 2 1
268.000000 -283.000000 65033.000000 5 9 1
269.000000 -283.000000 65034.000000 8 15 1
270.000000 -283.000000 65035.000000 9 21 1
271.000000 -283.000000 65035.000000 11 27 1
272.000000 -283.000000 65035.000000 14 26 2
273.000000 -283.000000 65035.000000 17 25 1
274.000000 -283.000000 65035.000000 18 30 1
275.000000 -283.000000 65036.000000 20 36 1
276.000000 -283.000000 65036.000000 24 45 1
277.000000 -283.000000 65036.000000 29 48 1
278.000000 -283.000000 65036.000000 26 49 1
279.000000 -283.000000 65036.000000 23 49 1
280.000000 -283.000000 65037.000000 23 45 1
281.000000 -283.000000 65038.000000 24 46 1
282.000000 -283.000000 65038.000000 25 47 1
283.000000 -283.000000 65038.000000 26 49 23
284.000000 -283.000000 65038.000000 29 54 45
285.000000 -283.000000 65037.000000 33 59 23
286.000000 -283.000000 65036.000000 34 65 1
287.000000 -283.000000 65036.000000 35 71 1
288.000000 -283.000000 65035.000000 39 75 1
289.000000 -283.000000 65035.000000 43 78 1
290.000000 -283.000000 65035.000000 48 81 1
291.000000 -283.000000 65034.000000 53 81 1
292.000000 -283.000000 65034.000000 47 75 1
293.000000 -283.000000 65034.000000 42 68 1
294.000000 -283.000000 65033.000000 39 68 1
295.000000 -283.000000 65029.000000 37 69 1
296.000000 -283.000000 65029.000000 40 77 1
297.000000 -283.000000 65029.000000 44 86 1
298.000000 -283.000000 65026.000000 51 86 1
299.000000 -283.000000 65026.000000 58 86 1
300.000000 -283.000000 65026.000000 66 91 1
301.000000 -283.000000 65026.000000 75 92 1
302.000000 -283.000000 65020.000000 77 89 1
303.000000 -283.000000 65020.000000 78 84 1
304.000000 -283.000000 65020.000000 80 81 1
305.000000 -283.000000 65020.000000 81 78 2
306.000000 -283.000000 65019.000000 88 92 4
307.000000 -283.000000 65018.000000 96 90 2
308.000000 -283.000000 65017.000000 88 89 1
309.000000 -283.000000 65017.000000 80 89 1
310.000000 -283.000000 65017.000000 79 91 1
311.000000 -283.000000 65016.000000 78 85 5
312.000000 -283.000000 65016.000000 81 81 10
251.000000 -284.000000 65026.000000 40 51 3
252.000000 -284.000000 65029.000000 26 24 2
253.000000 -284.000000 65029.000000 12 14 1
254.000000 -284.000000 65029.000000 9 5 1
255.000000 -284.000000 65029.000000 6 6 2
256.000000 -284.000000 65029.000000 3 7 3
257.000000 -284.000000 65029.000000 1 2 2
258.000000 -284.000000 65030.000000 1 3 1
259.000000 -284.000000 65030.000000 1 3 1
260.000000 -284.000000 65031.000000 1 3 2
261.000000 -284.000000 65031.000000 2 3 1
262.000000 -284.000000 65031.000000 1 4 1
263.000000 -284.000000 65031.000000 1 2 1
264.000000 -284.000000 65032.000000 1 1 1
265.000000 -284.000000 65032.000000 1 1 6
266.000000 -284.000000 65032.000000 1 1 11
267.000000 -284.000000 65033.000000 1 2 6
268.000000 -284.000000 65033.000000 1 3 1
269.000000 -284.000000 65035.000000 2 16 2
270.000000 -284.000000 65035.000000 3 6 3
271.000000 -284.000000 65035.000000 4 7 2
272.000000 -284.000000 65035.000000 7 8 2
273.000000 -284.000000 65036.000000 10 21 3
274.000000 -284.000000 65035.000000 12 17 5
275.000000 -284.000000 65035.000000 14 34 9
276.000000 -284.000000 65036.000000 21 41 14
277.000000 -284.000000 65036.000000 29 46 7
278.000000 -284.000000 65036.000000 25 49 1
279.000000 -284.000000 65036.000000 21 49 3
280.000000 -284.000000 65037.000000 23 46 5
281.000000 -284.000000 65037.000000 25 46 3
282.000000 -284.000000 65038.000000 26 47 1
283.000000 -284.000000 65038.000000 27 51 12
284.000000 -284.000000 65038.000000 30 53 23
285.000000 -284.000000 65037.000000 33 63 12
286.000000 -284.000000 65036.000000 33 65 1
287.000000 -284.000000 65036.000000 33 68 1
288.000000 -284.000000 65035.000000 37 73 1
289.000000 -284.000000 65035.000000 41 78 1
290.000000 -284.000000 65035.000000 43 80 2
291.000000 -284.000000 65034.000000 46 76 1
292.000000 -284.000000 65034.000000 42 73 1
293.000000 -284.000000 65033.000000 39 69 1
294.000000 -284.000000 65033.000000 34 65 1
295.000000 -284.000000 65029.000000 30 69 1
296.000000 -284.000000 65029.000000 37 64 1
297.000000 -284.000000 65028.000000 44 84 1
298.000000 -284.000000 65027.000000 50 84 1
299.000000 -284.000000 65027.000000 56 86 1
300.000000 -284.000000 65027.000000 66 89 2
301.000000 -284.000000 65027.000000 76 90 9
302.000000 -284.000000 65020.000000 80 88 16
303.000000 -284.000000 65020.000000 84 86 20
304.000000 -284.000000 65020.000000 84 87 24
305.000000 -284.000000 65020.000000 85 90 31
306.000000 -284.000000 65019.000000 94 94 39
307.000000 -284.000000 65018.000000 103 89 22
308.000000 -284.000000 65017.000000 91 80 5
309.000000 -284.000000 65017.000000 80 92 3
310.000000 -284.000000 65017.000000 78 91 1
311.000000 -284.000000 65017.000000 77 83 7
312.000000 -284.000000 65017.000000 82 78 13
252.000000 -285.000000 65029.000000 22 12 3
253.000000 -285.000000 65029.000000 9 4 2
254.000000 -285.000000 65029.000000 7 3 1
255.000000 -285.000000 65029.000000 5 3 1
256.000000 -285.000000 65029.000000 3 3 1
257.000000 -285.000000 65029.000000 1 3 1
258.000000 -285.000000 65029.000000 1 2 1
259.000000 -285.000000 65029.000000 1 1 1
260.000000 -285.000000 65030.000000 1 2 1
261.000000 -285.000000 65031.000000 2 3 1
262.000000 -285.000000 65031.000000 2 3 1
263.000000 -285.000000 65030.000000 2 2 1
264.000000 -285.000000 65031.000000 1 1 1
265.000000 -285.000000 65032.000000 1 1 11
266.000000 -285.000000 65032.000000 1 1 21
267.000000 -285.000000 65032.000000 1 2 11
268.000000 -285.000000 65032.000000 3 6 1
269.000000 -285.000000 65034.000000 6 17 3
270.000000 -285.000000 65035.000000 8 17 5
271.000000 -285.000000 65035.000000 9 17 3
272.000000 -285.000000 65035.000000 11 17 2
273.000000 -285.000000 65036.000000 13 17 5
274.000000 -285.000000 65035.000000 15 19 9
275.000000 -285.000000 65035.000000 17 33 18
276.000000 -285.000000 65036.000000 21 41 27
277.000000 -285.000000 65036.000000 26 45 14
278.000000 -285.000000 65036.000000 24 47 1
279.000000 -285.000000 65037.000000 22 49 5
280.000000 -285.000000 65037.000000 22 48 9
281.000000 -285.000000 65038.000000 21 47 5
282.000000 -285.000000 65038.000000 23 46 1
283.000000 -285.000000 65038.000000 26 53 1
284.000000 -285.000000 65038.000000 29 57 1
285.000000 -285.000000 65037.000000 32 67 1
286.000000 -285.000000 65036.000000 32 64 1
287.000000 -285.000000 65036.000000 32 65 1
288.000000 -285.000000 65035.000000 35 72 1
289.000000 -285.000000 65035.000000 39 78 2
290.000000 -285.000000 65035.000000 42 83 3
291.000000 -285.000000 65035.000000 45 90 2
292.000000 -285.000000 65034.000000 43 77 1
293.000000 -285.000000 65034.000000 41 77 1
294.000000 -285.000000 65031.000000 39 73 1
295.000000 -285.000000 65029.000000 37 69 1
296.000000 -285.000000 65029.000000 43 75 2
297.000000 -285.000000 65028.000000 49 82 1
298.000000 -285.000000 65027.000000 54 83 1
299.000000 -285.000000 65027.000000 59 87 2
300.000000 -285.000000 65027.000000 67 90 3
301.000000 -285.000000 65026.000000 76 91 17
302.000000 -285.000000 65021.000000 79 87 32
303.000000 -285.000000 65021.000000 82 85 39
304.000000 -285.000000 65020.000000 78 87 47
305.000000 -285.000000 65020.000000 74 90 60
306.000000 -285.000000 65020.000000 85 89 74
307.000000 -285.000000 65019.000000 96 88 42
308.000000 -285.000000 65018.000000 88 91 10
309.000000 -285.000000 65017.000000 81 95 5
310.000000 -285.000000 65017.000000 78 89 1
311.000000 -285.000000 65017.000000 75 82 9
312.000000 -285.000000 65017.000000 79 78 17
252.000000 -286.000000 65030.000000 18 1 2
253.000000 -286.000000 65029.000000 6 1 2
254.000000 -286.000000 65029.000000 5 2 3
255.000000 -286.000000 65029.000000 4 2 2
256.000000 -286.000000 65029.000000 2 2 1
257.000000 -286.000000 65029.000000 1 2 1
258.000000 -286.000000 65029.000000 1 2 1
259.000000 -286.000000 65030.000000 1 2 1
260.000000 -286.000000 65030.000000 2 2 1
261.000000 -286.000000 65031.000000 3 3 1
262.000000 -286.000000 65031.000000 3 3 1
263.000000 -286.000000 65030.000000 4 2 1
264.000000 -286.000000 65031.000000 2 1 1
265.000000 -286.000000 65031.000000 1 1 6
266.000000 -286.000000 65031.000000 1 1 11
267.000000 -286.000000 65032.000000 1 2 6
268.000000 -286.000000 65032.000000 6 10 1
269.000000 -286.000000 65034.000000 11 20 2
270.000000 -286.000000 65035.000000 13 27 3
271.000000 -286.000000 65035.000000 15 26 2
272.000000 -286.000000 65035.000000 15 26 1
273.000000 -286.000000 65035.000000 16 23 3
274.000000 -286.000000 65035.000000 18 21 5
275.000000 -286.000000 65035.000000 21 38 9
276.000000 -286.000000 65036.000000 22 41 14
277.000000 -286.000000 65036.000000 23 43 7
278.000000 -286.000000 65037.000000 23 45 1
279.000000 -286.000000 65037.000000 24 47 3
280.000000 -286.000000 65038.000000 21 50 5
281.000000 -286.000000 65038.000000 18 48 3
282.000000 -286.000000 65038.000000 21 46 1
283.000000 -286.000000 65038.000000 25 53 3
284.000000 -286.000000 65038.000000 28 61 5
285.000000 -286.000000 65037.000000 31 62 3
286.000000 -286.000000 65036.000000 31 64 1
287.000000 -286.000000 65036.000000 32 66 1
288.000000 -286.000000 65035.000000 34 71 1
289.000000 -286.000000 65035.000000 37 77 2
290.000000 -286.000000 65035.000000 41 86 4
291.000000 -286.000000 65035.000000 45 84 2
292.000000 -286.000000 65035.000000 44 82 1
293.000000 -286.000000 65034.000000 43 76 1
294.000000 -286.000000 65032.000000 44 79 1
295.000000 -286.000000 65031.000000 45 80 1
296.000000 -286.000000 65029.000000 49 81 1
297.000000 -286.000000 65028.000000 54 81 1
298.000000 -286.000000 65027.000000 58 82 1
299.000000 -286.000000 65027.000000 62 86 1
300.000000 -286.000000 65026.000000 69 93 2
301.000000 -286.000000 65026.000000 77 90 11
302.000000 -286.000000 65022.000000 78 87 20
303.000000 -286.000000 65021.000000 80 85 25
304.000000 -286.000000 65020.000000 71 79 30
305.000000 -286.000000 65020.000000 63 85 42
306.000000 -286.000000 65020.000000 76 91 54
307.000000 -286.000000 65019.000000 89 91 33
308.000000 -286.000000 65018.000000 85 91 12
309.000000 -286.000000 65017.000000 82 89 7
310.000000 -286.000000 65017.000000 78 88 2
311.000000 -286.000000 65017.000000 74 82 10
312.000000 -286.000000 65017.000000 76 78 17
252.000000 -287.000000 65030.000000 28 10 1
253.000000 -287.000000 65029.000000 18 1 3
254.000000 -287.000000 65029.000000 13 4 6
255.000000 -287.000000 65029.000000 9 7 3
256.000000 -287.000000 65029.000000 5 2 1
257.000000 -287.000000 65029.000000 1 3 1
258.000000 -287.000000 65029.000000 1 2 1
259.000000 -287.000000 65030.000000 1 2 1
260.000000 -287.000000 65030.000000 3 2 1
261.000000 -287.000000 65031.000000 5 4 1
262.000000 -287.000000 65032.000000 6 18 2
263.000000 -287.000000 65031.000000 7 32 1
264.000000 -287.000000 65032.000000 5 6 1
265.000000 -287.000000 65031.000000 3 2 1
266.000000 -287.000000 65032.000000 2 1 1
267.000000 -287.000000 65032.000000 1 2 1
268.000000 -287.000000 65032.000000 8 13 1
269.000000 -287.000000 65033.000000 16 24 1
270.000000 -287.000000 65034.000000 19 32 1
271.000000 -287.000000 65035.000000 22 39 1
272.000000 -287.000000 65035.000000 22 39 1
273.000000 -287.000000 65035.000000 23 39 1
274.000000 -287.000000 65035.000000 26 41 1
275.000000 -287.000000 65035.000000 29 43 1
276.000000 -287.000000 65036.000000 26 44 1
277.000000 -287.000000 65037.000000 24 50 1
278.000000 -287.000000 65037.000000 25 46 1
279.000000 -287.000000 65038.000000 25 46 1
280.000000 -287.000000 65038.000000 22 49 1
281.000000 -287.000000 65038.000000 19 50 1
282.000000 -287.000000 65038.000000 21 46 1
283.000000 -287.000000 65038.000000 23 53 5
284.000000 -287.000000 65038.000000 27 58 9
285.000000 -287.000000 65037.000000 32 62 5
286.000000 -287.000000 65036.000000 32 63 1
287.000000 -287.000000 65036.000000 33 67 1
288.000000 -287.000000 65035.000000 35 72 1
289.000000 -287.000000 65035.000000 38 77 3
290.000000 -287.000000 65035.000000 41 78 5
291.000000 -287.000000 65035.000000 44 80 3
292.000000 -287.000000 65034.000000 43 78 1
293.000000 -287.000000 65034.000000 41 76 1
294.000000 -287.000000 65032.000000 42 76 1
295.000000 -287.000000 65031.000000 43 77 1
296.000000 -287.000000 65029.000000 47 78 1
297.000000 -287.000000 65028.000000 52 79 1
298.000000 -287.000000 65027.000000 57 81 1
299.000000 -287.000000 65026.000000 62 85 1
300.000000 -287.000000 65025.000000 68 91 1
301.000000 -287.000000 65025.000000 75 89 5
302.000000 -287.000000 65023.000000 78 88 9
303.000000 -287.000000 65022.000000 81 86 11
304.000000 -287.000000 65021.000000 76 80 14
305.000000 -287.000000 65020.000000 72 71 24
306.000000 -287.000000 65020.000000 80 90 34
307.000000 -287.000000 65019.000000 88 93 24
308.000000 -287.000000 65018.000000 84 89 14
309.000000 -287.000000 65017.000000 80 89 9
310.000000 -287.000000 65018.000000 77 87 4
311.000000 -287.000000 65018.000000 75 83 11
312.000000 -287.000000 65018.000000 77 78 18
253.000000 -288.000000 65029.000000 30 30 2
254.000000 -288.000000 65029.000000 22 29 4
255.000000 -288.000000 65029.000000 14 16 2
256.000000 -288.000000 65029.000000 8 3 1
257.000000 -288.000000 65029.000000 2 3 1
258.000000 -288.000000 65029.000000 2 2 1
259.000000 -288.000000 65030.000000 2 2 1
260.000000 -288.000000 65030.000000 4 2 1
261.000000 -288.000000 65032.000000 7 8 1
262.000000 -288.000000 65032.000000 8 37 2
263.000000 -288.000000 65032.000000 10 26 1
264.000000 -288.000000 65033.000000 8 12 1
265.000000 -288.000000 65034.000000 6 6 1
266.000000 -288.000000 65034.000000 4 1 1
267.000000 -288.000000 65034.000000 2 3 1
268.000000 -288.000000 65034.000000 11 17 1
269.000000 -288.000000 65034.000000 21 30 1
270.000000 -288.000000 65035.000000 25 37 1
271.000000 -288.000000 65035.000000 30 41 1
272.000000 -288.000000 65035.000000 30 46 1
273.000000 -288.000000 65035.000000 30 46 1
274.000000 -288.000000 65035.000000 33 46 1
275.000000 -288.000000 65035.000000 37 45 1
276.000000 -288.000000 65036.000000 31 47 1
277.000000 -288.000000 65036.000000 26 47 1
278.000000 -288.000000 65037.000000 26 47 1
279.000000 -288.000000 65038.000000 27 48 1
280.000000 -288.000000 65038.000000 23 49 1
281.000000 -288.000000 65038.000000 20 49 1
282.000000 -288.000000 65038.000000 21 47 1
283.000000 -288.000000 65038.000000 22 53 3
284.000000 -288.000000 65038.000000 27 56 5
285.000000 -288.000000 65038.000000 33 60 3
286.000000 -288.000000 65037.000000 34 62 1
287.000000 -288.000000 65037.000000 35 69 1
288.000000 -288.000000 65036.000000 37 73 1
289.000000 -288.000000 65036.000000 39 77 2
290.000000 -288.000000 65035.000000 41 82 3
291.000000 -288.000000 65035.000000 44 80 2
292.000000 -288.000000 65034.000000 42 73 1
293.000000 -288.000000 65033.000000 40 75 1
294.000000 -288.000000 65032.000000 40 69 1
295.000000 -288.000000 65032.000000 41 71 1
296.000000 -288.000000 65030.000000 45 73 1
297.000000 -288.000000 65029.000000 50 76 1
298.000000 -288.000000 65027.000000 56 81 1
299.000000 -288.000000 65026.000000 62 86 1
300.000000 -288.000000 65025.000000 68 90 2
301.000000 -288.000000 65025.000000 74 90 4
302.000000 -288.000000 65023.000000 78 90 6
303.000000 -288.000000 65022.000000 82 86 10
304.000000 -288.000000 65021.000000 82 81 14
305.000000 -288.000000 65021.000000 82 85 17
306.000000 -288.000000 65020.000000 85 89 20
307.000000 -288.000000 65019.000000 88 90 14
308.000000 -288.000000 65018.000000 83 88 7
309.000000 -288.000000 65018.000000 79 89 5
310.000000 -288.000000 65019.000000 77 87 2
311.000000 -288.000000 65019.000000 76 84 13
312.000000 -288.000000 65018.000000 77 79 24
255.000000 -289.000000 65028.000000 21 39 1
256.000000 -289.000000 65029.000000 13 16 1
257.000000 -289.000000 65029.000000 4 4 1
258.000000 -289.000000 65029.000000 3 4 1
259.000000 -289.000000 65029.000000 1 4 1
260.000000 -289.000000 65031.000000 3 3 1
261.000000 -289.000000 65033.000000 4 13 1
262.000000 -289.000000 65033.000000 5 16 2
263.000000 -289.000000 65034.000000 7 20 1
264.000000 -289.000000 65034.000000 9 16 1
265.000000 -289.000000 65035.000000 11 10 1
266.000000 -289.000000 65035.000000 11 7 1
267.000000 -289.000000 65035.000000 12 5 1
268.000000 -289.000000 65035.000000 18 31 1
269.000000 -289.000000 65035.000000 25 44 1
270.000000 -289.000000 65035.000000 27 46 1
271.000000 -289.000000 65035.000000 30 49 1
272.000000 -289.000000 65035.000000 28 50 1
273.000000 -289.000000 65035.000000 26 51 1
274.000000 -289.000000 65035.000000 29 48 1
275.000000 -289.000000 65036.000000 31 44 1
276.000000 -289.000000 65036.000000 26 44 1
277.000000 -289.000000 65037.000000 21 45 1
278.000000 -289.000000 65038.000000 24 46 1
279.000000 -289.000000 65038.000000 28 49 1
280.000000 -289.000000 65038.000000 23 49 1
281.000000 -289.000000 65038.000000 19 49 1
282.000000 -289.000000 65038.000000 21 51 1
283.000000 -289.000000 65038.000000 23 53 1
284.000000 -289.000000 65038.000000 27 56 1
285.000000 -289.000000 65038.000000 32 59 1
286.000000 -289.000000 65037.000000 33 59 1
287.000000 -289.000000 65037.000000 34 71 1
288.000000 -289.000000 65036.000000 37 75 1
289.000000 -289.000000 65035.000000 40 78 1
290.000000 -289.000000 65035.000000 42 82 1
291.000000 -289.000000 65034.000000 44 81 1
292.000000 -289.000000 65034.000000 42 78 1
293.000000 -289.000000 65032.000000 41 75 1
294.000000 -289.000000 65032.000000 37 70 1
295.000000 -289.000000 65032.000000 33 66 1
296.000000 -289.000000 65030.000000 39 70 1
297.000000 -289.000000 65029.000000 44 74 1
298.000000 -289.000000 65028.000000 51 79 1
299.000000 -289.000000 65028.000000 58 87 2
300.000000 -289.000000 65025.000000 66 89 3
301.000000 -289.000000 65022.000000 75 92 3
302.000000 -289.000000 65022.000000 78 89 4
303.000000 -289.000000 65020.000000 82 86 9
304.000000 -289.000000 65020.000000 83 87 14
305.000000 -289.000000 65020.000000 84 89 10
306.000000 -289.000000 65020.000000 85 90 7
307.000000 -289.000000 65019.000000 87 92 4
308.000000 -289.000000 65018.000000 82 89 1
309.000000 -289.000000 65017.000000 77 89 1
310.000000 -289.000000 65018.000000 76 88 1
311.000000 -289.000000 65017.000000 75 85 15
312.000000 -289.000000 65017.000000 77 80 30
255.000000 -290.000000 65029.000000 29 42 11
256.000000 -290.000000 65029.000000 18 30 1
257.000000 -290.000000 65029.000000 7 20 1
258.000000 -290.000000 65029.000000 4 11 1
259.000000 -290.000000 65029.000000 1 5 1
260.000000 -290.000000 65031.000000 1 5 1
261.000000 -290.000000 65033.000000 2 5 1
262.000000 -290.000000 65034.000000 3 6 1
263.000000 -290.000000 65034.000000 4 13 1
264.000000 -290.000000 65034.000000 10 21 1
265.000000 -290.000000 65035.000000 16 19 1
266.000000 -290.000000 65035.000000 19 17 1
267.000000 -290.000000 65035.000000 22 31 10
268.000000 -290.000000 65035.000000 26 46 20
269.000000 -290.000000 65035.000000 30 49 10
270.000000 -290.000000 65035.000000 30 53 1
271.000000 -290.000000 65035.000000 30 53 1
272.000000 -290.000000 65035.000000 26 53 1
273.000000 -290.000000 65035.000000 23 50 3
274.000000 -290.000000 65035.000000 24 50 6
275.000000 -290.000000 65036.000000 26 47 3
276.000000 -290.000000 65037.000000 21 45 1
277.000000 -290.000000 65037.000000 16 45 1
278.000000 -290.000000 65038.000000 22 46 1
279.000000 -290.000000 65038.000000 29 50 1
280.000000 -290.000000 65038.000000 23 50 1
281.000000 -290.000000 65038.000000 18 48 1
282.000000 -290.000000 65038.000000 21 53 1
283.000000 -290.000000 65038.000000 24 53 1
284.000000 -290.000000 65038.000000 27 56 1
285.000000 -290.000000 65038.000000 31 56 1
286.000000 -290.000000 65038.000000 32 57 1
287.000000 -290.000000 65037.000000 33 64 1
288.000000 -290.000000 65036.000000 37 77 1
289.000000 -290.000000 65036.000000 42 79 1
290.000000 -290.000000 65035.000000 43 82 1
291.000000 -290.000000 65035.000000 44 81 1
292.000000 -290.000000 65034.000000 43 80 1
293.000000 -290.000000 65032.000000 42 75 1
294.000000 -290.000000 65032.000000 34 72 1
295.000000 -290.000000 65032.000000 26 67 1
296.000000 -290.000000 65030.000000 32 63 1
297.000000 -290.000000 65029.000000 39 73 1
298.000000 -290.000000 65029.000000 47 78 1
299.000000 -290.000000 65029.000000 55 87 1
300.000000 -290.000000 65025.000000 65 89 2
301.000000 -290.000000 65023.000000 76 92 3
302.000000 -290.000000 65022.000000 79 97 5
303.000000 -290.000000 65021.000000 83 89 7
304.000000 -290.000000 65021.000000 85 87 10
305.000000 -290.000000 65020.000000 87 89 11
306.000000 -290.000000 65020.000000 86 93 12
307.000000 -290.000000 65019.000000 86 91 6
308.000000 -290.000000 65018.000000 81 90 1
309.000000 -290.000000 65017.000000 76 89 1
310.000000 -290.000000 65017.000000 75 89 2
311.000000 -290.000000 65016.000000 74 85 13
312.000000 -290.000000 65016.000000 76 82 25
255.000000 -291.000000 65029.000000 32 46 20
256.000000 -291.000000 65029.000000 22 37 1
257.000000 -291.000000 65029.000000 13 31 1
258.000000 -291.000000 65029.000000 7 14 1
261.000000 -291.000000 65033.000000 1 3 1
262.000000 -291.000000 65035.000000 2 4 1
263.000000 -291.000000 65035.000000 3 5 1
264.000000 -291.000000 65035.000000 9 17 1
265.000000 -291.000000 65035.000000 15 26 1
266.000000 -291.000000 65035.000000 21 35 1
267.000000 -291.000000 65035.000000 27 45 20
268.000000 -291.000000 65035.000000 31 46 40
269.000000 -291.000000 65035.000000 34 56 20
270.000000 -291.000000 65035.000000 32 52 1
271.000000 -291.000000 65035.000000 31 52 1
272.000000 -291.000000 65035.000000 31 52 1
273.000000 -291.000000 65035.000000 31 50 6
274.000000 -291.000000 65036.000000 29 50 11
275.000000 -291.000000 65036.000000 27 50 6
276.000000 -291.000000 65037.000000 22 45 1
277.000000 -291.000000 65038.000000 18 44 1
278.000000 -291.000000 65038.000000 21 47 1
279.000000 -291.000000 65038.000000 25 51 1
280.000000 -291.000000 65038.000000 21 49 1
281.000000 -291.000000 65038.000000 18 47 1
282.000000 -291.000000 65038.000000 21 50 1
283.000000 -291.000000 65038.000000 24 53 1
284.000000 -291.000000 65038.000000 26 55 1
285.000000 -291.000000 65038.000000 29 57 1
286.000000 -291.000000 65038.000000 30 57 1
287.000000 -291.000000 65037.000000 31 51 1
288.000000 -291.000000 65036.000000 36 73 1
289.000000 -291.000000 65035.000000 40 80 1
290.000000 -291.000000 65035.000000 42 81 1
291.000000 -291.000000 65034.000000 45 82 1
292.000000 -291.000000 65033.000000 44 79 1
293.000000 -291.000000 65032.000000 43 76 1
294.000000 -291.000000 65032.000000 38 76 1
295.000000 -291.000000 65032.000000 33 76 1
296.000000 -291.000000 65030.000000 36 74 1
297.000000 -291.000000 65030.000000 40 72 1
298.000000 -291.000000 65030.000000 48 83 1
299.000000 -291.000000 65025.000000 56 87 1
300.000000 -291.000000 65025.000000 64 90 2
301.000000 -291.000000 65023.000000 72 93 4
302.000000 -291.000000 65023.000000 76 93 6
303.000000 -291.000000 65022.000000 81 93 6
304.000000 -291.000000 65021.000000 86 91 6
305.000000 -291.000000 65020.000000 91 90 11
306.000000 -291.000000 65020.000000 89 94 17
307.000000 -291.000000 65019.000000 86 98 9
308.000000 -291.000000 65018.000000 79 95 1
309.000000 -291.000000 65017.000000 72 93 2
310.000000 -291.000000 65017.000000 73 88 3
311.000000 -291.000000 65016.000000 74 85 11
312.000000 -291.000000 65016.000000 76 82 20
252.000000 -292.000000 65028.000000 31 50 1
253.000000 -292.000000 65029.000000 38 50 10
254.000000 -292.000000 65029.000000 36 51 20
262.000000 -292.000000 65035.000000 1 1 1
263.000000 -292.000000 65035.000000 2 4 2
264.000000 -292.000000 65035.000000 8 13 4
265.000000 -292.000000 65035.000000 15 28 2
266.000000 -292.000000 65035.000000 24 42 1
267.000000 -292.000000 65035.000000 33 45 10
268.000000 -292.000000 65035.000000 36 46 20
269.000000 -292.000000 65035.000000 39 47 10
270.000000 -292.000000 65035.000000 35 49 1
271.000000 -292.000000 65035.000000 32 52 1
272.000000 -292.000000 65035.000000 36 52 1
273.000000 -292.000000 65036.000000 40 51 3
274.000000 -292.000000 65036.000000 34 48 6
275.000000 -292.000000 65037.000000 28 50 3
276.000000 -292.000000 65038.000000 24 45 1
277.000000 -292.000000 65038.000000 21 46 1
278.000000 -292.000000 65038.000000 21 48 1
279.000000 -292.000000 65038.000000 21 48 1
280.000000 -292.000000 65038.000000 20 48 1
281.000000 -292.000000 65038.000000 19 48 1
282.000000 -292.000000 65038.000000 22 48 1
283.000000 -292.000000 65038.000000 25 52 1
284.000000 -292.000000 65038.000000 26 54 1
285.000000 -292.000000 65038.000000 27 57 1
286.000000 -292.000000 65038.000000 28 58 1
287.000000 -292.000000 65038.000000 30 63 9
288.000000 -292.000000 65037.000000 34 69 18
289.000000 -292.000000 65036.000000 39 78 9
290.000000 -292.000000 65035.000000 42 80 1
291.000000 -292.000000 65034.000000 46 82 1
292.000000 -292.000000 65033.000000 45 79 1
293.000000 -292.000000 65033.000000 44 75 1
294.000000 -292.000000 65032.000000 42 77 1
295.000000 -292.000000 65032.000000 40 76 1
296.000000 -292.000000 65030.000000 41 77 1
297.000000 -292.000000 65030.000000 42 77 1
298.000000 -292.000000 65030.000000 50 89 1
299.000000 -292.000000 65025.000000 58 89 2
300.000000 -292.000000 65025.000000 63 91 3
301.000000 -292.000000 65024.000000 69 91 12
302.000000 -292.000000 65023.000000 74 92 22
303.000000 -292.000000 65023.000000 79 93 13
304.000000 -292.000000 65021.000000 87 94 4
305.000000 -292.000000 65020.000000 96 90 6
306.000000 -292.000000 65020.000000 91 95 9
307.000000 -292.000000 65019.000000 87 95 5
308.000000 -292.000000 65018.000000 77 96 1
309.000000 -292.000000 65017.000000 68 91 1
310.000000 -292.000000 65017.000000 71 88 2
311.000000 -292.000000 65017.000000 74 86 10
312.000000 -292.000000 65017.000000 76 83 18
313.000000 -292.000000 65017.000000 79 78 33
250.000000 -293.000000 65026.000000 52 63 1
251.000000 -293.000000 65027.000000 35 56 1
252.000000 -293.000000 65027.000000 38 48 1
253.000000 -293.000000 65028.000000 40 51 1
254.000000 -293.000000 65029.000000 38 49 1
255.000000 -293.000000 65029.000000 36 48 1
262.000000 -293.000000 65035.000000 1 3 1
263.000000 -293.000000 65035.000000 2 3 4
264.000000 -293.000000 65035.000000 6 10 7
265.000000 -293.000000 65035.000000 11 30 4
266.000000 -293.000000 65035.000000 19 41 1
267.000000 -293.000000 65035.000000 27 45 1
268.000000 -293.000000 65035.000000 31 45 1
269.000000 -293.000000 65035.000000 35 46 1
270.000000 -293.000000 65035.000000 33 50 1
271.000000 -293.000000 65035.000000 31 53 1
272.000000 -293.000000 65035.000000 32 52 1
273.000000 -293.000000 65037.000000 33 52 1
274.000000 -293.000000 65037.000000 31 51 1
275.000000 -293.000000 65037.000000 29 50 1
276.000000 -293.000000 65038.000000 25 48 1
277.000000 -293.000000 65038.000000 22 47 1
278.000000 -293.000000 65038.000000 20 47 1
279.000000 -293.000000 65038.000000 19 48 1
280.000000 -293.000000 65038.000000 19 48 1
281.000000 -293.000000 65038.000000 20 48 1
282.000000 -293.000000 65038.000000 22 49 1
283.000000 -293.000000 65038.000000 24 51 1
