ply
    format ascii 1.0
    element vertex 11117
    property float x
    property float y
    property float z
    property uchar red
    property uchar green
    property uchar blue
    end_header
282.000000 -267.000000 65034.000000 18 8 1
283.000000 -267.000000 65032.000000 29 10 1
284.000000 -267.000000 65032.000000 28 11 1
285.000000 -267.000000 65032.000000 27 13 1
286.000000 -267.000000 65032.000000 24 35 2
287.000000 -267.000000 65032.000000 21 47 1
288.000000 -267.000000 65031.000000 26 51 1
289.000000 -267.000000 65031.000000 31 55 1
290.000000 -267.000000 65030.000000 40 64 2
291.000000 -267.000000 65029.000000 50 76 26
292.000000 -267.000000 65029.000000 58 82 51
293.000000 -267.000000 65025.000000 66 81 34
294.000000 -267.000000 65025.000000 45 53 17
295.000000 -267.000000 65024.000000 25 42 9
296.000000 -267.000000 65025.000000 32 54 1
297.000000 -267.000000 65025.000000 39 67 1
298.000000 -267.000000 65026.000000 47 73 2
299.000000 -267.000000 65023.000000 56 80 2
300.000000 -267.000000 65022.000000 57 78 3
301.000000 -267.000000 65022.000000 58 76 2
302.000000 -267.000000 65021.000000 53 77 1
303.000000 -267.000000 65020.000000 48 78 1
304.000000 -267.000000 65020.000000 62 90 1
305.000000 -267.000000 65020.000000 77 94 2
306.000000 -267.000000 65020.000000 79 94 3
307.000000 -267.000000 65022.000000 82 88 6
247.000000 -268.000000 65019.000000 29 50 1
248.000000 -268.000000 65019.000000 31 50 1
249.000000 -268.000000 65020.000000 34 48 1
250.000000 -268.000000 65020.000000 29 46 1
251.000000 -268.000000 65021.000000 25 41 1
252.000000 -268.000000 65021.000000 25 34 1
253.000000 -268.000000 65023.000000 26 35 1
254.000000 -268.000000 65023.000000 23 42 1
255.000000 -268.000000 65026.000000 21 50 1
256.000000 -268.000000 65026.000000 25 48 1
257.000000 -268.000000 65027.000000 29 52 1
258.000000 -268.000000 65027.000000 31 52 1
259.000000 -268.000000 65027.000000 34 50 1
260.000000 -268.000000 65028.000000 38 49 1
261.000000 -268.000000 65028.000000 42 49 4
262.000000 -268.000000 65029.000000 45 50 7
263.000000 -268.000000 65031.000000 48 49 4
264.000000 -268.000000 65032.000000 47 46 1
265.000000 -268.000000 65032.000000 47 45 1
266.000000 -268.000000 65032.000000 48 44 1
267.000000 -268.000000 65032.000000 50 48 4
268.000000 -268.000000 65032.000000 49 55 7
269.000000 -268.000000 65033.000000 49 49 4
270.000000 -268.000000 65033.000000 40 50 1
271.000000 -268.000000 65035.000000 32 47 1
272.000000 -268.000000 65035.000000 23 44 1
273.000000 -268.000000 65035.000000 14 32 1
274.000000 -268.000000 65035.000000 11 4 1
275.000000 -268.000000 65035.000000 9 4 1
276.000000 -268.000000 65035.000000 8 4 1
277.000000 -268.000000 65035.000000 7 5 1
278.000000 -268.000000 65034.000000 4 7 1
279.000000 -268.000000 65034.000000 1 8 15
280.000000 -268.000000 65034.000000 2 9 29
281.000000 -268.000000 65034.000000 3 11 21
282.000000 -268.000000 65033.000000 18 14 13
283.000000 -268.000000 65032.000000 34 16 7
284.000000 -268.000000 65032.000000 30 19 1
285.000000 -268.000000 65032.000000 27 19 1
286.000000 -268.000000 65032.000000 15 19 1
287.000000 -268.000000 65031.000000 3 25 1
288.000000 -268.000000 65029.000000 14 31 1
289.000000 -268.000000 65029.000000 26 38 1
290.000000 -268.000000 65028.000000 37 67 1
291.000000 -268.000000 65028.000000 49 73 14
292.000000 -268.000000 65026.000000 59 80 28
293.000000 -268.000000 65026.000000 69 79 18
294.000000 -268.000000 65025.000000 35 41 9
295.000000 -268.000000 65024.000000 1 33 5
296.000000 -268.000000 65024.000000 12 19 1
297.000000 -268.000000 65025.000000 23 43 1
298.000000 -268.000000 65023.000000 36 68 1
299.000000 -268.000000 65023.000000 50 78 1
300.000000 -268.000000 65023.000000 51 74 2
301.000000 -268.000000 65022.000000 52 70 1
302.000000 -268.000000 65022.000000 43 40 1
303.000000 -268.000000 65021.000000 34 56 1
304.000000 -268.000000 65021.000000 55 87 1
305.000000 -268.000000 65020.000000 77 95 7
306.000000 -268.000000 65020.000000 80 94 14
247.000000 -269.000000 65019.000000 30 61 1
248.000000 -269.000000 65019.000000 33 52 1
249.000000 -269.000000 65020.000000 36 50 1
250.000000 -269.000000 65020.000000 29 45 1
251.000000 -269.000000 65021.000000 22 44 1
252.000000 -269.000000 65021.000000 20 35 1
253.000000 -269.000000 65023.000000 19 35 1
254.000000 -269.000000 65025.000000 20 44 1
255.000000 -269.000000 65026.000000 22 52 1
256.000000 -269.000000 65026.000000 23 51 1
257.000000 -269.000000 65027.000000 25 51 1
258.000000 -269.000000 65028.000000 30 51 1
259.000000 -269.000000 65027.000000 34 51 1
260.000000 -269.000000 65028.000000 38 49 1
261.000000 -269.000000 65028.000000 42 47 7
262.000000 -269.000000 65029.000000 44 50 14
263.000000 -269.000000 65030.000000 47 49 7
264.000000 -269.000000 65031.000000 46 45 1
265.000000 -269.000000 65032.000000 45 40 1
266.000000 -269.000000 65032.000000 47 42 1
267.000000 -269.000000 65032.000000 49 44 7
268.000000 -269.000000 65033.000000 53 45 13
269.000000 -269.000000 65035.000000 57 47 7
270.000000 -269.000000 65034.000000 43 46 1
271.000000 -269.000000 65035.000000 29 45 1
272.000000 -269.000000 65035.000000 18 31 1
273.000000 -269.000000 65035.000000 7 15 1
274.000000 -269.000000 65035.000000 8 4 1
275.000000 -269.000000 65035.000000 8 6 1
276.000000 -269.000000 65035.000000 12 6 1
277.000000 -269.000000 65035.000000 17 6 1
278.000000 -269.000000 65035.000000 12 5 1
279.000000 -269.000000 65035.000000 7 4 23
280.000000 -269.000000 65034.000000 16 10 45
281.000000 -269.000000 65034.000000 25 17 35
282.000000 -269.000000 65032.000000 40 33 26
283.000000 -269.000000 65032.000000 55 49 13
284.000000 -269.000000 65032.000000 49 45 1
285.000000 -269.000000 65032.000000 43 42 1
286.000000 -269.000000 65031.000000 33 33 1
287.000000 -269.000000 65029.000000 24 25 1
288.000000 -269.000000 65029.000000 25 23 1
289.000000 -269.000000 65028.000000 26 21 1
290.000000 -269.000000 65028.000000 29 44 1
291.000000 -269.000000 65028.000000 33 71 3
292.000000 -269.000000 65026.000000 48 81 5
293.000000 -269.000000 65026.000000 63 77 3
294.000000 -269.000000 65026.000000 39 52 1
295.000000 -269.000000 65024.000000 16 25 1
296.000000 -269.000000 65025.000000 20 21 1
297.000000 -269.000000 65025.000000 25 18 1
298.000000 -269.000000 65023.000000 39 70 1
299.000000 -269.000000 65023.000000 53 77 1
300.000000 -269.000000 65023.000000 54 75 1
301.000000 -269.000000 65022.000000 55 65 1
302.000000 -269.000000 65022.000000 51 50 1
303.000000 -269.000000 65022.000000 47 35 1
304.000000 -269.000000 65022.000000 63 89 1
305.000000 -269.000000 65022.000000 79 97 13
306.000000 -269.000000 65022.000000 80 95 26
247.000000 -270.000000 65020.000000 32 54 1
248.000000 -270.000000 65020.000000 35 55 1
249.000000 -270.000000 65020.000000 38 47 1
250.000000 -270.000000 65020.000000 28 45 1
251.000000 -270.000000 65021.000000 19 41 1
252.000000 -270.000000 65021.000000 15 36 1
253.000000 -270.000000 65023.000000 12 35 1
254.000000 -270.000000 65025.000000 17 46 1
255.000000 -270.000000 65026.000000 23 49 1
256.000000 -270.000000 65027.000000 22 50 1
257.000000 -270.000000 65028.000000 22 50 1
258.000000 -270.000000 65029.000000 28 51 1
259.000000 -270.000000 65029.000000 35 50 1
260.000000 -270.000000 65029.000000 38 50 1
261.000000 -270.000000 65029.000000 42 50 4
262.000000 -270.000000 65029.000000 44 51 7
263.000000 -270.000000 65032.000000 47 47 4
264.000000 -270.000000 65032.000000 45 45 1
265.000000 -270.000000 65032.000000 44 42 1
266.000000 -270.000000 65032.000000 46 40 1
267.000000 -270.000000 65032.000000 49 44 4
268.000000 -270.000000 65033.000000 57 51 7
269.000000 -270.000000 65033.000000 66 46 4
270.000000 -270.000000 65034.000000 46 41 1
271.000000 -270.000000 65035.000000 26 41 1
272.000000 -270.000000 65035.000000 13 19 1
273.000000 -270.000000 65035.000000 1 13 1
274.000000 -270.000000 65035.000000 4 5 1
275.000000 -270.000000 65035.000000 8 7 1
276.000000 -270.000000 65035.000000 17 9 1
277.000000 -270.000000 65035.000000 27 7 1
278.000000 -270.000000 65035.000000 20 5 1
279.000000 -270.000000 65035.000000 14 12 15
280.000000 -270.000000 65034.000000 30 28 30
281.000000 -270.000000 65034.000000 47 55 22
282.000000 -270.000000 65032.000000 61 83 15
283.000000 -270.000000 65032.000000 76 82 8
284.000000 -270.000000 65032.000000 68 82 1
285.000000 -270.000000 65032.000000 60 75 1
286.000000 -270.000000 65030.000000 52 68 1
287.000000 -270.000000 65029.000000 45 46 1
288.000000 -270.000000 65029.000000 36 24 1
289.000000 -270.000000 65029.000000 27 18 2
290.000000 -270.000000 65029.000000 22 17 4
291.000000 -270.000000 65028.000000 17 50 3
292.000000 -270.000000 65026.000000 37 82 3
293.000000 -270.000000 65026.000000 58 80 2
294.000000 -270.000000 65026.000000 44 63 1
295.000000 -270.000000 65026.000000 31 36 1
296.000000 -270.000000 65025.000000 29 1 2
297.000000 -270.000000 65025.000000 28 19 1
298.000000 -270.000000 65025.000000 42 73 1
299.000000 -270.000000 65024.000000 57 79 1
300.000000 -270.000000 65023.000000 58 86 1
301.000000 -270.000000 65022.000000 59 82 1
302.000000 -270.000000 65022.000000 59 78 1
303.000000 -270.000000 65022.000000 60 84 2
304.000000 -270.000000 65022.000000 70 91 3
305.000000 -270.000000 65022.000000 81 93 9
306.000000 -270.000000 65022.000000 80 96 15
247.000000 -271.000000 65020.000000 29 54 1
248.000000 -271.000000 65020.000000 30 55 1
249.000000 -271.000000 65020.000000 32 45 1
250.000000 -271.000000 65021.000000 24 42 1
251.000000 -271.000000 65023.000000 16 39 1
252.000000 -271.000000 65023.000000 11 37 1
253.000000 -271.000000 65023.000000 7 35 1
254.000000 -271.000000 65024.000000 13 44 1
255.000000 -271.000000 65026.000000 20 48 1
256.000000 -271.000000 65027.000000 22 48 1
257.000000 -271.000000 65029.000000 24 49 1
258.000000 -271.000000 65029.000000 28 49 1
259.000000 -271.000000 65029.000000 32 50 1
260.000000 -271.000000 65029.000000 36 50 1
261.000000 -271.000000 65029.000000 40 49 1
262.000000 -271.000000 65029.000000 42 50 1
263.000000 -271.000000 65032.000000 44 46 1
264.000000 -271.000000 65032.000000 41 44 1
265.000000 -271.000000 65032.000000 38 34 1
266.000000 -271.000000 65032.000000 43 42 1
267.000000 -271.000000 65032.000000 48 45 1
268.000000 -271.000000 65033.000000 53 51 1
269.000000 -271.000000 65034.000000 58 58 1
270.000000 -271.000000 65035.000000 43 45 1
271.000000 -271.000000 65035.000000 28 37 1
272.000000 -271.000000 65035.000000 17 26 1
273.000000 -271.000000 65035.000000 6 12 1
274.000000 -271.000000 65035.000000 7 11 1
275.000000 -271.000000 65035.000000 8 11 1
276.000000 -271.000000 65035.000000 12 14 1
277.000000 -271.000000 65035.000000 17 19 1
278.000000 -271.000000 65035.000000 15 20 1
279.000000 -271.000000 65035.000000 14 21 8
280.000000 -271.000000 65035.000000 31 35 16
281.000000 -271.000000 65035.000000 48 82 10
282.000000 -271.000000 65033.000000 57 80 4
283.000000 -271.000000 65032.000000 66 79 3
284.000000 -271.000000 65032.000000 62 82 2
285.000000 -271.000000 65031.000000 58 84 2
286.000000 -271.000000 65030.000000 57 80 2
287.000000 -271.000000 65029.000000 56 77 1
288.000000 -271.000000 65029.000000 46 51 1
289.000000 -271.000000 65029.000000 35 16 4
290.000000 -271.000000 65029.000000 31 16 7
291.000000 -271.000000 65029.000000 27 29 4
292.000000 -271.000000 65027.000000 42 75 1
293.000000 -271.000000 65026.000000 58 83 1
294.000000 -271.000000 65026.000000 50 71 1
295.000000 -271.000000 65026.000000 43 47 2
296.000000 -271.000000 65025.000000 43 34 3
297.000000 -271.000000 65025.000000 43 21 2
298.000000 -271.000000 65025.000000 51 81 1
299.000000 -271.000000 65024.000000 60 91 1
300.000000 -271.000000 65023.000000 59 87 2
301.000000 -271.000000 65022.000000 58 88 1
302.000000 -271.000000 65022.000000 60 88 1
303.000000 -271.000000 65022.000000 62 88 3
304.000000 -271.000000 65022.000000 71 90 6
305.000000 -271.000000 65021.000000 79 91 5
306.000000 -271.000000 65021.000000 80 95 4
247.000000 -272.000000 65020.000000 26 55 1
248.000000 -272.000000 65020.000000 26 56 1
249.000000 -272.000000 65020.000000 26 47 1
250.000000 -272.000000 65022.000000 19 37 1
251.000000 -272.000000 65023.000000 13 39 1
252.000000 -272.000000 65023.000000 7 38 1
253.000000 -272.000000 65023.000000 2 40 1
254.000000 -272.000000 65024.000000 9 43 1
255.000000 -272.000000 65026.000000 17 47 1
256.000000 -272.000000 65027.000000 21 48 1
257.000000 -272.000000 65029.000000 26 51 1
258.000000 -272.000000 65029.000000 28 54 1
259.000000 -272.000000 65029.000000 30 50 1
260.000000 -272.000000 65029.000000 34 51 1
261.000000 -272.000000 65029.000000 38 50 1
262.000000 -272.000000 65031.000000 40 49 1
263.000000 -272.000000 65032.000000 42 48 1
264.000000 -272.000000 65032.000000 37 44 1
265.000000 -272.000000 65032.000000 33 44 1
266.000000 -272.000000 65032.000000 40 45 1
267.000000 -272.000000 65032.000000 47 48 1
268.000000 -272.000000 65033.000000 48 52 1
269.000000 -272.000000 65033.000000 50 51 1
270.000000 -272.000000 65034.000000 40 50 1
271.000000 -272.000000 65035.000000 30 43 1
272.000000 -272.000000 65035.000000 21 33 1
273.000000 -272.000000 65035.000000 12 22 1
274.000000 -272.000000 65035.000000 10 11 1
275.000000 -272.000000 65035.000000 9 12 1
276.000000 -272.000000 65035.000000 8 17 1
277.000000 -272.000000 65035.000000 7 19 1
278.000000 -272.000000 65035.000000 10 12 1
279.000000 -272.000000 65035.000000 14 15 6
280.000000 -272.000000 65035.000000 31 43 12
281.000000 -272.000000 65035.000000 49 73 15
282.000000 -272.000000 65033.000000 53 77 18
283.000000 -272.000000 65032.000000 57 81 9
284.000000 -272.000000 65032.000000 57 82 1
285.000000 -272.000000 65031.000000 57 82 3
286.000000 -272.000000 65030.000000 62 80 5
287.000000 -272.000000 65030.000000 68 79 3
288.000000 -272.000000 65029.000000 56 79 1
289.000000 -272.000000 65029.000000 44 46 2
290.000000 -272.000000 65029.000000 41 4 4
291.000000 -272.000000 65029.000000 38 31 2
292.000000 -272.000000 65027.000000 48 68 1
293.000000 -272.000000 65026.000000 58 86 1
294.000000 -272.000000 65026.000000 57 79 2
295.000000 -272.000000 65026.000000 56 79 2
296.000000 -272.000000 65026.000000 57 79 2
297.000000 -272.000000 65025.000000 58 84 2
298.000000 -272.000000 65025.000000 60 89 2
299.000000 -272.000000 65025.000000 63 88 1
300.000000 -272.000000 65023.000000 60 88 1
301.000000 -272.000000 65023.000000 58 87 1
302.000000 -272.000000 65022.000000 61 87 1
303.000000 -272.000000 65022.000000 65 87 3
304.000000 -272.000000 65022.000000 71 89 6
305.000000 -272.000000 65021.000000 78 92 10
306.000000 -272.000000 65021.000000 80 95 13
246.000000 -273.000000 65019.000000 17 44 1
247.000000 -273.000000 65020.000000 29 57 1
248.000000 -273.000000 65020.000000 27 52 1
249.000000 -273.000000 65020.000000 26 49 1
250.000000 -273.000000 65022.000000 20 40 1
251.000000 -273.000000 65023.000000 13 39 1
252.000000 -273.000000 65023.000000 9 39 1
253.000000 -273.000000 65023.000000 6 42 1
254.000000 -273.000000 65024.000000 11 44 1
255.000000 -273.000000 65026.000000 17 47 1
256.000000 -273.000000 65027.000000 20 49 1
257.000000 -273.000000 65029.000000 24 53 1
258.000000 -273.000000 65029.000000 27 52 1
259.000000 -273.000000 65029.000000 30 51 1
260.000000 -273.000000 65029.000000 34 52 1
261.000000 -273.000000 65029.000000 38 54 1
262.000000 -273.000000 65031.000000 44 52 1
263.000000 -273.000000 65032.000000 50 50 1
264.000000 -273.000000 65032.000000 43 45 1
265.000000 -273.000000 65032.000000 36 46 1
266.000000 -273.000000 65032.000000 42 46 1
267.000000 -273.000000 65033.000000 47 55 1
268.000000 -273.000000 65033.000000 49 52 2
269.000000 -273.000000 65033.000000 51 51 1
270.000000 -273.000000 65034.000000 42 50 1
271.000000 -273.000000 65035.000000 34 49 1
272.000000 -273.000000 65035.000000 27 49 1
273.000000 -273.000000 65035.000000 21 49 1
274.000000 -273.000000 65035.000000 17 31 1
275.000000 -273.000000 65035.000000 14 14 1
276.000000 -273.000000 65035.000000 9 15 1
277.000000 -273.000000 65035.000000 4 19 1
278.000000 -273.000000 65035.000000 6 8 1
279.000000 -273.000000 65035.000000 9 10 5
280.000000 -273.000000 65035.000000 33 37 9
281.000000 -273.000000 65035.000000 58 65 20
282.000000 -273.000000 65033.000000 58 78 32
283.000000 -273.000000 65032.000000 58 83 16
284.000000 -273.000000 65032.000000 56 82 1
285.000000 -273.000000 65031.000000 55 82 5
286.000000 -273.000000 65031.000000 58 82 9
287.000000 -273.000000 65029.000000 62 83 5
288.000000 -273.000000 65029.000000 56 80 1
289.000000 -273.000000 65029.000000 50 76 1
290.000000 -273.000000 65029.000000 49 55 1
291.000000 -273.000000 65029.000000 48 34 1
292.000000 -273.000000 65026.000000 54 77 1
293.000000 -273.000000 65026.000000 61 90 2
294.000000 -273.000000 65026.000000 59 86 3
295.000000 -273.000000 65026.000000 57 83 2
296.000000 -273.000000 65026.000000 58 81 1
297.000000 -273.000000 65026.000000 60 89 2
298.000000 -273.000000 65025.000000 62 87 3
299.000000 -273.000000 65025.000000 65 85 2
300.000000 -273.000000 65023.000000 60 85 1
301.000000 -273.000000 65023.000000 55 85 1
302.000000 -273.000000 65023.000000 59 86 1
303.000000 -273.000000 65023.000000 64 87 4
304.000000 -273.000000 65023.000000 70 90 7
305.000000 -273.000000 65021.000000 76 94 15
306.000000 -273.000000 65021.000000 80 95 23
244.000000 -274.000000 65018.000000 4 1 1
245.000000 -274.000000 65018.000000 7 4 1
246.000000 -274.000000 65019.000000 19 49 1
247.000000 -274.000000 65020.000000 32 48 1
248.000000 -274.000000 65020.000000 29 48 1
249.000000 -274.000000 65020.000000 27 48 1
250.000000 -274.000000 65023.000000 20 43 1
251.000000 -274.000000 65023.000000 14 41 1
252.000000 -274.000000 65023.000000 12 40 1
253.000000 -274.000000 65023.000000 10 44 1
254.000000 -274.000000 65024.000000 13 46 1
255.000000 -274.000000 65026.000000 17 48 1
256.000000 -274.000000 65027.000000 19 50 1
257.000000 -274.000000 65029.000000 22 50 1
258.000000 -274.000000 65029.000000 26 51 1
259.000000 -274.000000 65029.000000 30 52 1
260.000000 -274.000000 65029.000000 34 55 1
261.000000 -274.000000 65029.000000 38 55 1
262.000000 -274.000000 65031.000000 48 55 1
263.000000 -274.000000 65032.000000 59 52 1
264.000000 -274.000000 65032.000000 49 47 1
265.000000 -274.000000 65032.000000 40 47 1
266.000000 -274.000000 65032.000000 44 47 1
267.000000 -274.000000 65033.000000 48 50 1
268.000000 -274.000000 65033.000000 50 53 1
269.000000 -274.000000 65034.000000 53 52 5
270.000000 -274.000000 65035.000000 45 52 9
271.000000 -274.000000 65035.000000 38 52 5
272.000000 -274.000000 65035.000000 34 53 1
273.000000 -274.000000 65035.000000 31 50 1
274.000000 -274.000000 65035.000000 25 48 1
275.000000 -274.000000 65035.000000 19 28 1
276.000000 -274.000000 65035.000000 10 14 1
277.000000 -274.000000 65036.000000 1 9 1
278.000000 -274.000000 65036.000000 2 4 1
279.000000 -274.000000 65035.000000 4 6 14
280.000000 -274.000000 65035.000000 36 32 28
281.000000 -274.000000 65035.000000 68 72 22
282.000000 -274.000000 65035.000000 63 79 16
283.000000 -274.000000 65032.000000 59 79 8
284.000000 -274.000000 65032.000000 56 79 1
285.000000 -274.000000 65031.000000 53 82 3
286.000000 -274.000000 65030.000000 54 83 5
287.000000 -274.000000 65029.000000 56 82 3
288.000000 -274.000000 65029.000000 56 82 1
289.000000 -274.000000 65029.000000 56 81 1
290.000000 -274.000000 65029.000000 57 80 1
291.000000 -274.000000 65029.000000 58 83 1
292.000000 -274.000000 65027.000000 61 87 1
293.000000 -274.000000 65027.000000 65 87 1
294.000000 -274.000000 65026.000000 61 87 2
295.000000 -274.000000 65026.000000 58 85 1
296.000000 -274.000000 65026.000000 60 84 1
297.000000 -274.000000 65026.000000 62 84 1
298.000000 -274.000000 65025.000000 65 85 2
299.000000 -274.000000 65025.000000 68 85 1
300.000000 -274.000000 65023.000000 60 84 1
301.000000 -274.000000 65023.000000 52 84 1
302.000000 -274.000000 65023.000000 57 86 1
303.000000 -274.000000 65023.000000 63 89 2
304.000000 -274.000000 65022.000000 69 92 4
305.000000 -274.000000 65020.000000 75 94 8
306.000000 -274.000000 65019.000000 81 95 12
307.000000 -274.000000 65019.000000 87 84 22
243.000000 -275.000000 65017.000000 1 3 2
244.000000 -275.000000 65018.000000 4 2 1
245.000000 -275.000000 65018.000000 8 8 1
246.000000 -275.000000 65019.000000 23 47 2
247.000000 -275.000000 65020.000000 38 50 1
248.000000 -275.000000 65020.000000 34 48 1
249.000000 -275.000000 65020.000000 30 48 1
250.000000 -275.000000 65022.000000 24 46 1
251.000000 -275.000000 65023.000000 18 45 1
252.000000 -275.000000 65023.000000 16 46 1
253.000000 -275.000000 65023.000000 14 47 1
254.000000 -275.000000 65024.000000 17 47 1
255.000000 -275.000000 65026.000000 21 50 1
256.000000 -275.000000 65026.000000 22 50 1
257.000000 -275.000000 65029.000000 23 51 1
258.000000 -275.000000 65029.000000 26 52 1
259.000000 -275.000000 65029.000000 28 53 1
260.000000 -275.000000 65029.000000 33 54 1
261.000000 -275.000000 65029.000000 37 58 1
262.000000 -275.000000 65031.000000 42 55 2
263.000000 -275.000000 65032.000000 47 54 1
264.000000 -275.000000 65032.000000 34 45 1
265.000000 -275.000000 65032.000000 22 37 1
266.000000 -275.000000 65032.000000 33 40 1
267.000000 -275.000000 65032.000000 44 43 1
268.000000 -275.000000 65033.000000 46 55 1
269.000000 -275.000000 65033.000000 48 58 9
270.000000 -275.000000 65035.000000 43 55 18
271.000000 -275.000000 65035.000000 38 54 9
272.000000 -275.000000 65035.000000 38 52 1
273.000000 -275.000000 65035.000000 38 51 1
274.000000 -275.000000 65035.000000 31 48 1
275.000000 -275.000000 65035.000000 24 42 1
276.000000 -275.000000 65036.000000 19 23 1
277.000000 -275.000000 65036.000000 14 4 1
278.000000 -275.000000 65036.000000 19 3 1
279.000000 -275.000000 65035.000000 24 2 24
280.000000 -275.000000 65035.000000 48 55 48
281.000000 -275.000000 65035.000000 72 79 24
282.000000 -275.000000 65034.000000 66 78 1
283.000000 -275.000000 65032.000000 61 76 1
284.000000 -275.000000 65032.000000 61 79 1
285.000000 -275.000000 65031.000000 62 83 1
286.000000 -275.000000 65031.000000 60 82 1
287.000000 -275.000000 65030.000000 58 80 1
288.000000 -275.000000 65030.000000 57 81 1
289.000000 -275.000000 65029.000000 57 81 1
290.000000 -275.000000 65029.000000 58 81 1
291.000000 -275.000000 65029.000000 60 88 1
292.000000 -275.000000 65027.000000 65 87 1
293.000000 -275.000000 65027.000000 70 84 1
294.000000 -275.000000 65026.000000 65 85 1
295.000000 -275.000000 65026.000000 60 86 1
296.000000 -275.000000 65026.000000 60 85 1
297.000000 -275.000000 65026.000000 61 82 1
298.000000 -275.000000 65025.000000 63 84 1
299.000000 -275.000000 65025.000000 65 85 1
300.000000 -275.000000 65023.000000 60 84 1
301.000000 -275.000000 65023.000000 56 83 1
302.000000 -275.000000 65023.000000 61 86 1
303.000000 -275.000000 65023.000000 66 91 1
304.000000 -275.000000 65022.000000 70 91 1
305.000000 -275.000000 65022.000000 75 94 1
306.000000 -275.000000 65019.000000 80 94 1
307.000000 -275.000000 65019.000000 85 83 1
243.000000 -276.000000 65019.000000 1 2 1
244.000000 -276.000000 65019.000000 5 3 1
245.000000 -276.000000 65019.000000 9 11 1
246.000000 -276.000000 65020.000000 27 46 2
247.000000 -276.000000 65020.000000 45 48 2
248.000000 -276.000000 65020.000000 39 46 2
249.000000 -276.000000 65022.000000 33 47 1
250.000000 -276.000000 65022.000000 28 50 1
251.000000 -276.000000 65023.000000 23 46 1
252.000000 -276.000000 65023.000000 20 46 1
253.000000 -276.000000 65023.000000 18 47 1
254.000000 -276.000000 65024.000000 22 48 1
255.000000 -276.000000 65025.000000 26 49 1
256.000000 -276.000000 65029.000000 25 50 1
257.000000 -276.000000 65029.000000 25 50 1
258.000000 -276.000000 65029.000000 26 56 1
259.000000 -276.000000 65029.000000 27 54 3
260.000000 -276.000000 65029.000000 32 53 5
261.000000 -276.000000 65029.000000 37 54 3
262.000000 -276.000000 65031.000000 36 55 1
263.000000 -276.000000 65032.000000 35 44 1
264.000000 -276.000000 65032.000000 20 27 1
265.000000 -276.000000 65032.000000 5 29 1
266.000000 -276.000000 65032.000000 22 32 1
267.000000 -276.000000 65032.000000 40 41 1
268.000000 -276.000000 65033.000000 42 57 1
269.000000 -276.000000 65033.000000 44 56 6
270.000000 -276.000000 65034.000000 41 56 11
271.000000 -276.000000 65035.000000 39 53 6
272.000000 -276.000000 65035.000000 42 51 1
273.000000 -276.000000 65035.000000 45 50 1
274.000000 -276.000000 65035.000000 37 49 1
275.000000 -276.000000 65035.000000 30 51 1
276.000000 -276.000000 65036.000000 29 53 1
277.000000 -276.000000 65036.000000 28 51 1
278.000000 -276.000000 65036.000000 36 49 1
279.000000 -276.000000 65036.000000 45 63 29
280.000000 -276.000000 65036.000000 61 78 57
281.000000 -276.000000 65035.000000 77 78 29
282.000000 -276.000000 65035.000000 70 78 1
283.000000 -276.000000 65033.000000 63 78 1
284.000000 -276.000000 65032.000000 67 79 1
285.000000 -276.000000 65031.000000 72 80 1
286.000000 -276.000000 65031.000000 66 81 1
287.000000 -276.000000 65030.000000 60 82 1
288.000000 -276.000000 65030.000000 59 83 1
289.000000 -276.000000 65029.000000 59 83 1
290.000000 -276.000000 65029.000000 60 83 1
291.000000 -276.000000 65029.000000 62 85 1
292.000000 -276.000000 65027.000000 68 87 1
293.000000 -276.000000 65027.000000 75 84 1
294.000000 -276.000000 65027.000000 68 84 1
295.000000 -276.000000 65026.000000 62 85 6
296.000000 -276.000000 65026.000000 61 86 12
297.000000 -276.000000 65026.000000 61 82 6
298.000000 -276.000000 65026.000000 61 83 1
299.000000 -276.000000 65025.000000 62 85 1
300.000000 -276.000000 65023.000000 61 85 1
301.000000 -276.000000 65023.000000 61 85 1
302.000000 -276.000000 65023.000000 65 86 1
303.000000 -276.000000 65023.000000 69 90 1
304.000000 -276.000000 65023.000000 72 91 1
305.000000 -276.000000 65022.000000 76 92 1
306.000000 -276.000000 65022.000000 79 93 2
307.000000 -276.000000 65019.000000 83 84 13
243.000000 -277.000000 65018.000000 1 2 1
244.000000 -277.000000 65019.000000 5 2 1
245.000000 -277.000000 65019.000000 9 14 1
246.000000 -277.000000 65020.000000 23 42 2
247.000000 -277.000000 65020.000000 37 50 3
248.000000 -277.000000 65020.000000 32 48 4
249.000000 -277.000000 65021.000000 27 46 2
250.000000 -277.000000 65022.000000 22 46 1
251.000000 -277.000000 65023.000000 18 47 1
252.000000 -277.000000 65023.000000 17 43 1
253.000000 -277.000000 65023.000000 16 41 1
254.000000 -277.000000 65024.000000 23 44 1
255.000000 -277.000000 65026.000000 30 45 1
256.000000 -277.000000 65029.000000 27 47 1
257.000000 -277.000000 65029.000000 25 50 1
258.000000 -277.000000 65029.000000 25 49 1
259.000000 -277.000000 65029.000000 26 49 5
260.000000 -277.000000 65029.000000 31 50 10
261.000000 -277.000000 65030.000000 36 51 5
262.000000 -277.000000 65031.000000 34 50 1
263.000000 -277.000000 65032.000000 33 35 1
264.000000 -277.000000 65032.000000 23 30 1
265.000000 -277.000000 65032.000000 14 26 1
266.000000 -277.000000 65032.000000 25 31 1
267.000000 -277.000000 65032.000000 37 39 1
268.000000 -277.000000 65033.000000 40 45 1
269.000000 -277.000000 65033.000000 43 51 2
270.000000 -277.000000 65034.000000 39 48 4
271.000000 -277.000000 65035.000000 35 46 2
272.000000 -277.000000 65035.000000 38 47 1
273.000000 -277.000000 65035.000000 41 49 1
274.000000 -277.000000 65035.000000 36 49 1
275.000000 -277.000000 65035.000000 32 50 1
276.000000 -277.000000 65036.000000 32 51 1
277.000000 -277.000000 65036.000000 32 54 1
278.000000 -277.000000 65036.000000 41 55 1
279.000000 -277.000000 65035.000000 50 70 34
280.000000 -277.000000 65035.000000 60 78 67
281.000000 -277.000000 65035.000000 70 68 34
282.000000 -277.000000 65034.000000 61 73 1
283.000000 -277.000000 65033.000000 53 79 1
284.000000 -277.000000 65033.000000 55 79 1
285.000000 -277.000000 65032.000000 56 79 1
286.000000 -277.000000 65032.000000 57 77 2
287.000000 -277.000000 65032.000000 58 76 2
288.000000 -277.000000 65031.000000 61 83 2
289.000000 -277.000000 65031.000000 65 83 1
290.000000 -277.000000 65029.000000 60 83 1
291.000000 -277.000000 65029.000000 54 83 1
292.000000 -277.000000 65029.000000 58 83 2
293.000000 -277.000000 65028.000000 62 84 1
294.000000 -277.000000 65028.000000 61 84 1
295.000000 -277.000000 65027.000000 60 84 12
296.000000 -277.000000 65027.000000 62 83 23
297.000000 -277.000000 65027.000000 65 83 12
298.000000 -277.000000 65026.000000 62 85 1
299.000000 -277.000000 65026.000000 60 87 1
300.000000 -277.000000 65025.000000 62 86 1
301.000000 -277.000000 65025.000000 64 85 1
302.000000 -277.000000 65023.000000 66 88 1
303.000000 -277.000000 65023.000000 68 90 1
304.000000 -277.000000 65023.000000 72 91 1
305.000000 -277.000000 65022.000000 77 92 2
306.000000 -277.000000 65022.000000 79 92 3
242.000000 -278.000000 65020.000000 2 2 1
243.000000 -278.000000 65020.000000 2 2 1
244.000000 -278.000000 65019.000000 5 2 1
245.000000 -278.000000 65019.000000 9 8 1
246.000000 -278.000000 65019.000000 19 39 1
247.000000 -278.000000 65020.000000 30 52 2
248.000000 -278.000000 65020.000000 25 53 2
249.000000 -278.000000 65022.000000 21 50 1
250.000000 -278.000000 65022.000000 17 47 1
251.000000 -278.000000 65023.000000 14 46 1
252.000000 -278.000000 65023.000000 14 41 1
253.000000 -278.000000 65023.000000 14 40 1
254.000000 -278.000000 65024.000000 24 44 1
255.000000 -278.000000 65026.000000 35 43 1
256.000000 -278.000000 65027.000000 30 42 1
257.000000 -278.000000 65029.000000 25 48 1
258.000000 -278.000000 65029.000000 25 48 1
259.000000 -278.000000 65029.000000 26 50 3
260.000000 -278.000000 65029.000000 30 45 5
261.000000 -278.000000 65029.000000 35 48 3
262.000000 -278.000000 65032.000000 33 46 1
263.000000 -278.000000 65032.000000 31 37 1
264.000000 -278.000000 65032.000000 27 33 1
265.000000 -278.000000 65032.000000 24 32 1
266.000000 -278.000000 65032.000000 29 31 1
267.000000 -278.000000 65033.000000 34 39 1
268.000000 -278.000000 65034.000000 38 39 1
269.000000 -278.000000 65034.000000 43 50 2
270.000000 -278.000000 65035.000000 37 48 2
271.000000 -278.000000 65035.000000 32 47 1
272.000000 -278.000000 65035.000000 35 46 1
273.000000 -278.000000 65035.000000 38 49 1
274.000000 -278.000000 65036.000000 36 52 1
275.000000 -278.000000 65036.000000 34 49 1
276.000000 -278.000000 65036.000000 35 49 1
277.000000 -278.000000 65037.000000 37 54 1
278.000000 -278.000000 65037.000000 46 61 1
279.000000 -278.000000 65036.000000 56 74 18
280.000000 -278.000000 65036.000000 59 78 35
281.000000 -278.000000 65035.000000 63 72 18
282.000000 -278.000000 65035.000000 53 63 1
283.000000 -278.000000 65033.000000 44 51 1
284.000000 -278.000000 65032.000000 42 39 1
285.000000 -278.000000 65032.000000 41 54 1
286.000000 -278.000000 65032.000000 48 70 1
287.000000 -278.000000 65032.000000 56 76 2
288.000000 -278.000000 65032.000000 64 84 2
289.000000 -278.000000 65031.000000 72 83 1
290.000000 -278.000000 65030.000000 59 79 1
291.000000 -278.000000 65029.000000 47 72 1
292.000000 -278.000000 65028.000000 48 66 1
293.000000 -278.000000 65027.000000 49 73 3
294.000000 -278.000000 65026.000000 54 80 6
295.000000 -278.000000 65026.000000 59 82 9
296.000000 -278.000000 65026.000000 64 83 12
297.000000 -278.000000 65026.000000 69 82 6
298.000000 -278.000000 65026.000000 64 87 1
299.000000 -278.000000 65026.000000 59 87 1
300.000000 -278.000000 65025.000000 63 87 2
301.000000 -278.000000 65023.000000 68 84 1
302.000000 -278.000000 65023.000000 68 90 1
303.000000 -278.000000 65023.000000 68 90 1
304.000000 -278.000000 65022.000000 73 91 1
305.000000 -278.000000 65022.000000 78 92 1
306.000000 -278.000000 65022.000000 80 92 2
242.000000 -279.000000 65020.000000 3 2 1
243.000000 -279.000000 65020.000000 3 5 1
244.000000 -279.000000 65019.000000 6 3 1
245.000000 -279.000000 65019.000000 9 2 1
246.000000 -279.000000 65019.000000 19 42 1
247.000000 -279.000000 65020.000000 30 55 1
248.000000 -279.000000 65020.000000 28 52 1
249.000000 -279.000000 65020.000000 26 53 1
250.000000 -279.000000 65022.000000 21 49 1
251.000000 -279.000000 65023.000000 15 46 1
252.000000 -279.000000 65023.000000 13 41 1
253.000000 -279.000000 65025.000000 11 40 1
254.000000 -279.000000 65026.000000 18 42 1
255.000000 -279.000000 65026.000000 26 42 1
256.000000 -279.000000 65027.000000 24 42 1
257.000000 -279.000000 65028.000000 22 46 1
258.000000 -279.000000 65028.000000 25 48 1
259.000000 -279.000000 65029.000000 28 51 1
260.000000 -279.000000 65029.000000 32 50 1
261.000000 -279.000000 65029.000000 37 50 1
262.000000 -279.000000 65031.000000 37 48 1
263.000000 -279.000000 65032.000000 38 40 1
264.000000 -279.000000 65032.000000 33 31 1
265.000000 -279.000000 65032.000000 29 22 1
266.000000 -279.000000 65032.000000 34 29 1
267.000000 -279.000000 65033.000000 39 39 1
268.000000 -279.000000 65034.000000 45 43 2
269.000000 -279.000000 65035.000000 51 50 1
270.000000 -279.000000 65035.000000 43 50 1
271.000000 -279.000000 65035.000000 36 55 1
272.000000 -279.000000 65035.000000 39 47 1
273.000000 -279.000000 65036.000000 42 50 1
274.000000 -279.000000 65036.000000 38 49 1
275.000000 -279.000000 65036.000000 35 49 1
276.000000 -279.000000 65036.000000 34 50 1
277.000000 -279.000000 65037.000000 33 55 1
278.000000 -279.000000 65037.000000 42 65 1
279.000000 -279.000000 65036.000000 52 79 2
280.000000 -279.000000 65036.000000 53 77 3
281.000000 -279.000000 65035.000000 54 76 2
282.000000 -279.000000 65034.000000 42 52 1
283.000000 -279.000000 65033.000000 30 39 1
284.000000 -279.000000 65033.000000 27 34 1
285.000000 -279.000000 65032.000000 24 29 1
286.000000 -279.000000 65032.000000 35 51 1
287.000000 -279.000000 65032.000000 46 77 2
288.000000 -279.000000 65032.000000 53 80 3
289.000000 -279.000000 65031.000000 61 88 2
290.000000 -279.000000 65031.000000 45 65 1
291.000000 -279.000000 65031.000000 30 56 1
292.000000 -279.000000 65028.000000 31 51 1
293.000000 -279.000000 65027.000000 32 47 6
294.000000 -279.000000 65026.000000 42 66 11
295.000000 -279.000000 65026.000000 53 81 6
296.000000 -279.000000 65026.000000 59 81 2
297.000000 -279.000000 65026.000000 65 82 1
298.000000 -279.000000 65026.000000 62 82 1
299.000000 -279.000000 65026.000000 59 83 2
300.000000 -279.000000 65025.000000 63 83 4
301.000000 -279.000000 65024.000000 66 84 2
302.000000 -279.000000 65023.000000 66 84 1
303.000000 -279.000000 65023.000000 66 85 1
304.000000 -279.000000 65022.000000 71 90 1
305.000000 -279.000000 65022.000000 77 93 1
244.000000 -280.000000 65020.000000 6 4 1
245.000000 -280.000000 65020.000000 9 5 1
246.000000 -280.000000 65020.000000 19 45 1
247.000000 -280.000000 65020.000000 30 55 2
248.000000 -280.000000 65020.000000 31 52 4
249.000000 -280.000000 65020.000000 32 53 2
250.000000 -280.000000 65022.000000 24 51 1
251.000000 -280.000000 65023.000000 17 47 1
252.000000 -280.000000 65024.000000 13 41 1
253.000000 -280.000000 65025.000000 9 41 1
254.000000 -280.000000 65026.000000 13 42 1
255.000000 -280.000000 65026.000000 17 41 1
256.000000 -280.000000 65027.000000 18 38 1
257.000000 -280.000000 65027.000000 19 47 1
258.000000 -280.000000 65028.000000 24 48 1
259.000000 -280.000000 65029.000000 30 47 1
260.000000 -280.000000 65029.000000 35 47 1
261.000000 -280.000000 65029.000000 40 50 1
262.000000 -280.000000 65031.000000 42 51 1
263.000000 -280.000000 65032.000000 45 40 1
264.000000 -280.000000 65032.000000 39 30 1
265.000000 -280.000000 65033.000000 34 28 1
266.000000 -280.000000 65033.000000 39 27 1
267.000000 -280.000000 65033.000000 44 40 1
268.000000 -280.000000 65035.000000 51 47 1
269.000000 -280.000000 65035.000000 59 51 1
270.000000 -280.000000 65035.000000 50 52 1
271.000000 -280.000000 65036.000000 41 54 1
272.000000 -280.000000 65036.000000 43 49 1
273.000000 -280.000000 65037.000000 46 48 1
274.000000 -280.000000 65037.000000 41 47 1
275.000000 -280.000000 65036.000000 37 50 1
276.000000 -280.000000 65036.000000 33 51 1
277.000000 -280.000000 65036.000000 30 52 1
278.000000 -280.000000 65036.000000 39 70 1
279.000000 -280.000000 65036.000000 48 78 2
280.000000 -280.000000 65035.000000 47 82 3
281.000000 -280.000000 65035.000000 46 75 2
282.000000 -280.000000 65034.000000 31 42 1
283.000000 -280.000000 65033.000000 17 24 1
284.000000 -280.000000 65033.000000 12 2 1
285.000000 -280.000000 65032.000000 8 15 1
286.000000 -280.000000 65032.000000 22 32 1
287.000000 -280.000000 65032.000000 37 66 9
288.000000 -280.000000 65032.000000 43 76 18
289.000000 -280.000000 65031.000000 50 77 9
290.000000 -280.000000 65031.000000 32 51 1
291.000000 -280.000000 65031.000000 14 34 1
292.000000 -280.000000 65029.000000 14 3 2
293.000000 -280.000000 65029.000000 15 25 5
294.000000 -280.000000 65026.000000 31 52 8
295.000000 -280.000000 65026.000000 47 70 5
296.000000 -280.000000 65026.000000 54 87 2
297.000000 -280.000000 65026.000000 62 80 1
298.000000 -280.000000 65026.000000 61 82 1
299.000000 -280.000000 65025.000000 60 82 2
300.000000 -280.000000 65025.000000 62 82 3
301.000000 -280.000000 65023.000000 65 81 2
302.000000 -280.000000 65023.000000 64 80 1
303.000000 -280.000000 65023.000000 64 85 1
304.000000 -280.000000 65023.000000 70 89 1
305.000000 -280.000000 65022.000000 76 94 1
306.000000 -280.000000 65022.000000 79 92 1
244.000000 -281.000000 65020.000000 5 3 1
245.000000 -281.000000 65020.000000 9 9 1
246.000000 -281.000000 65020.000000 17 47 2
247.000000 -281.000000 65020.000000 25 56 4
248.000000 -281.000000 65020.000000 22 51 7
249.000000 -281.000000 65022.000000 20 53 4
250.000000 -281.000000 65022.000000 19 50 1
251.000000 -281.000000 65024.000000 17 49 1
252.000000 -281.000000 65024.000000 14 38 1
253.000000 -281.000000 65025.000000 12 42 1
254.000000 -281.000000 65026.000000 14 41 1
255.000000 -281.000000 65026.000000 17 40 1
256.000000 -281.000000 65026.000000 16 44 1
257.000000 -281.000000 65027.000000 14 48 1
258.000000 -281.000000 65028.000000 20 48 1
259.000000 -281.000000 65029.000000 27 46 1
260.000000 -281.000000 65029.000000 32 49 1
261.000000 -281.000000 65029.000000 37 51 1
262.000000 -281.000000 65031.000000 41 50 1
263.000000 -281.000000 65032.000000 46 41 1
264.000000 -281.000000 65032.000000 42 24 1
265.000000 -281.000000 65033.000000 38 28 1
266.000000 -281.000000 65033.000000 41 34 1
267.000000 -281.000000 65034.000000 45 42 1
268.000000 -281.000000 65035.000000 49 51 1
269.000000 -281.000000 65035.000000 53 55 1
270.000000 -281.000000 65036.000000 45 52 1
271.000000 -281.000000 65036.000000 38 53 1
272.000000 -281.000000 65036.000000 39 48 1
273.000000 -281.000000 65037.000000 40 42 1
274.000000 -281.000000 65037.000000 36 47 1
275.000000 -281.000000 65036.000000 33 51 1
276.000000 -281.000000 65036.000000 28 50 1
277.000000 -281.000000 65036.000000 23 50 1
278.000000 -281.000000 65035.000000 27 58 1
279.000000 -281.000000 65035.000000 32 78 2
280.000000 -281.000000 65035.000000 31 76 4
281.000000 -281.000000 65035.000000 31 75 2
282.000000 -281.000000 65035.000000 20 25 1
283.000000 -281.000000 65034.000000 10 9 1
284.000000 -281.000000 65033.000000 7 3 1
285.000000 -281.000000 65032.000000 4 1 1
286.000000 -281.000000 65032.000000 12 17 1
287.000000 -281.000000 65032.000000 20 55 17
288.000000 -281.000000 65032.000000 25 61 34
289.000000 -281.000000 65032.000000 29 67 17
290.000000 -281.000000 65031.000000 19 31 1
291.000000 -281.000000 65031.000000 8 13 2
292.000000 -281.000000 65029.000000 8 5 3
293.000000 -281.000000 65029.000000 9 4 4
294.000000 -281.000000 65026.000000 20 31 5
295.000000 -281.000000 65026.000000 31 59 3
296.000000 -281.000000 65027.000000 40 69 2
297.000000 -281.000000 65026.000000 50 79 1
298.000000 -281.000000 65026.000000 53 81 1
299.000000 -281.000000 65026.000000 56 84 1
300.000000 -281.000000 65025.000000 58 82 2
301.000000 -281.000000 65023.000000 60 81 1
302.000000 -281.000000 65023.000000 63 80 1
303.000000 -281.000000 65023.000000 66 86 1
304.000000 -281.000000 65023.000000 71 90 1
305.000000 -281.000000 65023.000000 76 95 1
306.000000 -281.000000 65023.000000 79 94 1
307.000000 -281.000000 65023.000000 81 88 9
247.000000 -282.000000 65020.000000 20 50 2
248.000000 -282.000000 65021.000000 14 51 4
249.000000 -282.000000 65022.000000 9 50 2
250.000000 -282.000000 65022.000000 13 50 1
251.000000 -282.000000 65023.000000 18 45 1
252.000000 -282.000000 65023.000000 16 35 2
253.000000 -282.000000 65025.000000 15 40 1
254.000000 -282.000000 65026.000000 16 46 1
255.000000 -282.000000 65026.000000 18 47 1
256.000000 -282.000000 65026.000000 14 49 1
257.000000 -282.000000 65027.000000 10 49 1
258.000000 -282.000000 65028.000000 17 50 1
259.000000 -282.000000 65029.000000 24 50 1
260.000000 -282.000000 65029.000000 29 51 1
261.000000 -282.000000 65029.000000 35 50 4
262.000000 -282.000000 65032.000000 41 50 7
263.000000 -282.000000 65032.000000 47 48 4
264.000000 -282.000000 65032.000000 44 18 1
265.000000 -282.000000 65033.000000 42 30 1
266.000000 -282.000000 65033.000000 44 41 1
267.000000 -282.000000 65034.000000 47 46 1
268.000000 -282.000000 65035.000000 47 55 1
269.000000 -282.000000 65035.000000 47 55 1
270.000000 -282.000000 65035.000000 41 53 1
271.000000 -282.000000 65036.000000 36 52 1
272.000000 -282.000000 65036.000000 35 47 1
273.000000 -282.000000 65037.000000 34 47 1
274.000000 -282.000000 65037.000000 32 48 1
275.000000 -282.000000 65036.000000 30 47 1
276.000000 -282.000000 65036.000000 23 46 1
277.000000 -282.000000 65036.000000 16 46 1
278.000000 -282.000000 65035.000000 16 47 1
279.000000 -282.000000 65035.000000 16 39 2
280.000000 -282.000000 65035.000000 16 31 3
281.000000 -282.000000 65035.000000 16 20 2
282.000000 -282.000000 65035.000000 9 9 1
283.000000 -282.000000 65034.000000 3 7 1
284.000000 -282.000000 65033.000000 2 5 1
285.000000 -282.000000 65032.000000 1 1 1
286.000000 -282.000000 65032.000000 2 3 1
287.000000 -282.000000 65032.000000 4 6 9
288.000000 -282.000000 65032.000000 6 9 18
289.000000 -282.000000 65031.000000 9 10 9
290.000000 -282.000000 65031.000000 6 11 1
291.000000 -282.000000 65031.000000 3 9 1
292.000000 -282.000000 65030.000000 3 7 2
293.000000 -282.000000 65030.000000 3 4 9
294.000000 -282.000000 65026.000000 9 10 16
295.000000 -282.000000 65026.000000 15 33 8
296.000000 -282.000000 65026.000000 27 56 1
297.000000 -282.000000 65026.000000 39 66 1
298.000000 -282.000000 65026.000000 46 76 1
299.000000 -282.000000 65025.000000 53 79 1
300.000000 -282.000000 65025.000000 54 82 1
301.000000 -282.000000 65024.000000 56 81 2
302.000000 -282.000000 65023.000000 62 81 4
303.000000 -282.000000 65023.000000 68 86 2
304.000000 -282.000000 65023.000000 72 92 1
305.000000 -282.000000 65022.000000 77 96 1
306.000000 -282.000000 65022.000000 79 96 1
307.000000 -282.000000 65022.000000 81 90 8
247.000000 -283.000000 65020.000000 20 52 1
248.000000 -283.000000 65021.000000 17 50 1
249.000000 -283.000000 65021.000000 13 49 1
250.000000 -283.000000 65022.000000 15 48 1
251.000000 -283.000000 65023.000000 17 41 2
252.000000 -283.000000 65023.000000 15 40 4
253.000000 -283.000000 65025.000000 13 39 2
254.000000 -283.000000 65026.000000 14 42 1
255.000000 -283.000000 65026.000000 16 45 1
256.000000 -283.000000 65026.000000 15 47 1
257.000000 -283.000000 65027.000000 15 50 1
258.000000 -283.000000 65027.000000 21 51 1
259.000000 -283.000000 65028.000000 28 59 1
260.000000 -283.000000 65029.000000 32 50 1
261.000000 -283.000000 65029.000000 37 50 7
262.000000 -283.000000 65029.000000 47 52 14
263.000000 -283.000000 65032.000000 57 56 7
264.000000 -283.000000 65032.000000 50 37 1
265.000000 -283.000000 65034.000000 44 32 1
266.000000 -283.000000 65034.000000 49 43 1
267.000000 -283.000000 65035.000000 54 51 1
268.000000 -283.000000 65035.000000 51 54 2
269.000000 -283.000000 65035.000000 48 55 1
270.000000 -283.000000 65035.000000 42 52 1
271.000000 -283.000000 65036.000000 37 51 1
272.000000 -283.000000 65036.000000 33 47 1
273.000000 -283.000000 65037.000000 30 49 1
274.000000 -283.000000 65037.000000 28 47 1
275.000000 -283.000000 65037.000000 27 39 1
276.000000 -283.000000 65036.000000 20 34 1
277.000000 -283.000000 65036.000000 12 29 1
278.000000 -283.000000 65036.000000 10 33 1
279.000000 -283.000000 65036.000000 9 38 1
280.000000 -283.000000 65035.000000 8 16 2
281.000000 -283.000000 65035.000000 8 4 1
282.000000 -283.000000 65035.000000 5 3 1
283.000000 -283.000000 65033.000000 2 3 1
284.000000 -283.000000 65032.000000 1 2 1
285.000000 -283.000000 65032.000000 1 2 1
286.000000 -283.000000 65032.000000 2 3 1
287.000000 -283.000000 65032.000000 3 3 1
288.000000 -283.000000 65032.000000 5 5 2
289.000000 -283.000000 65032.000000 8 7 1
290.000000 -283.000000 65032.000000 5 7 1
291.000000 -283.000000 65031.000000 2 7 1
292.000000 -283.000000 65030.000000 2 6 1
293.000000 -283.000000 65030.000000 2 5 14
294.000000 -283.000000 65026.000000 5 10 27
295.000000 -283.000000 65026.000000 9 12 14
296.000000 -283.000000 65026.000000 14 32 1
297.000000 -283.000000 65026.000000 20 52 1
298.000000 -283.000000 65025.000000 29 58 1
299.000000 -283.000000 65025.000000 39 65 1
300.000000 -283.000000 65025.000000 45 67 1
301.000000 -283.000000 65024.000000 51 70 4
302.000000 -283.000000 65023.000000 58 79 7
303.000000 -283.000000 65023.000000 66 86 4
304.000000 -283.000000 65022.000000 71 92 2
305.000000 -283.000000 65022.000000 77 97 1
306.000000 -283.000000 65022.000000 79 95 1
307.000000 -283.000000 65022.000000 81 93 8
308.000000 -283.000000 65022.000000 81 80 15
247.000000 -284.000000 65021.000000 21 50 1
248.000000 -284.000000 65021.000000 19 50 1
249.000000 -284.000000 65022.000000 18 49 1
250.000000 -284.000000 65022.000000 17 46 1
251.000000 -284.000000 65023.000000 17 40 1
252.000000 -284.000000 65023.000000 14 32 2
253.000000 -284.000000 65024.000000 12 39 1
254.000000 -284.000000 65025.000000 13 39 1
255.000000 -284.000000 65026.000000 14 40 1
256.000000 -284.000000 65026.000000 17 41 1
257.000000 -284.000000 65026.000000 20 50 1
258.000000 -284.000000 65027.000000 26 53 1
259.000000 -284.000000 65028.000000 32 51 1
260.000000 -284.000000 65029.000000 36 50 1
261.000000 -284.000000 65029.000000 40 49 4
262.000000 -284.000000 65029.000000 53 54 7
263.000000 -284.000000 65032.000000 67 50 4
264.000000 -284.000000 65032.000000 57 42 1
265.000000 -284.000000 65033.000000 47 43 3
266.000000 -284.000000 65034.000000 54 45 5
267.000000 -284.000000 65035.000000 62 49 3
268.000000 -284.000000 65035.000000 55 54 1
269.000000 -284.000000 65035.000000 49 53 1
270.000000 -284.000000 65035.000000 44 52 1
271.000000 -284.000000 65036.000000 39 49 1
272.000000 -284.000000 65036.000000 32 48 1
273.000000 -284.000000 65037.000000 26 47 1
274.000000 -284.000000 65038.000000 25 46 1
275.000000 -284.000000 65037.000000 25 37 1
276.000000 -284.000000 65036.000000 17 29 1
277.000000 -284.000000 65037.000000 9 22 1
278.000000 -284.000000 65037.000000 5 9 1
279.000000 -284.000000 65036.000000 2 5 1
280.000000 -284.000000 65036.000000 1 1 1
281.000000 -284.000000 65035.000000 1 2 1
282.000000 -284.000000 65035.000000 1 3 1
283.000000 -284.000000 65034.000000 2 3 1
284.000000 -284.000000 65033.000000 1 3 1
285.000000 -284.000000 65032.000000 1 3 1
286.000000 -284.000000 65032.000000 1 3 1
287.000000 -284.000000 65032.000000 2 3 3
288.000000 -284.000000 65032.000000 4 3 5
289.000000 -284.000000 65032.000000 7 3 3
290.000000 -284.000000 65031.000000 4 4 1
291.000000 -284.000000 65031.000000 1 4 1
292.000000 -284.000000 65030.000000 1 4 1
293.000000 -284.000000 65028.000000 1 5 7
294.000000 -284.000000 65026.000000 2 10 14
295.000000 -284.000000 65026.000000 4 8 7
296.000000 -284.000000 65026.000000 2 7 1
297.000000 -284.000000 65026.000000 1 12 1
298.000000 -284.000000 65026.000000 13 17 1
299.000000 -284.000000 65025.000000 25 27 1
300.000000 -284.000000 65025.000000 36 38 1
301.000000 -284.000000 65024.000000 47 56 2
302.000000 -284.000000 65023.000000 55 77 4
303.000000 -284.000000 65023.000000 64 87 2
304.000000 -284.000000 65022.000000 70 93 1
305.000000 -284.000000 65022.000000 77 96 1
306.000000 -284.000000 65022.000000 79 95 1
307.000000 -284.000000 65022.000000 82 89 9
308.000000 -284.000000 65022.000000 81 82 17
247.000000 -285.000000 65021.000000 26 51 1
248.000000 -285.000000 65020.000000 23 50 1
249.000000 -285.000000 65021.000000 21 49 1
