ply
    format ascii 1.0
    element vertex 10757
    property float x
    property float y
    property float z
    property uchar red
    property uchar green
    property uchar blue
    end_header
282.000000 -300.000000 65036.000000 29 56 1
283.000000 -300.000000 65035.000000 32 60 1
284.000000 -300.000000 65035.000000 34 65 1
285.000000 -300.000000 65035.000000 37 67 1
286.000000 -300.000000 65035.000000 39 69 1
287.000000 -300.000000 65035.000000 42 67 1
288.000000 -300.000000 65034.000000 42 66 1
289.000000 -300.000000 65034.000000 43 60 1
290.000000 -300.000000 65033.000000 47 42 1
291.000000 -300.000000 65034.000000 51 30 1
292.000000 -300.000000 65032.000000 65 29 1
293.000000 -300.000000 65032.000000 80 20 1
294.000000 -300.000000 65032.000000 73 12 1
295.000000 -300.000000 65032.000000 66 16 1
296.000000 -300.000000 65031.000000 65 20 1
297.000000 -300.000000 65031.000000 64 21 1
298.000000 -300.000000 65030.000000 60 23 1
299.000000 -300.000000 65029.000000 56 28 1
300.000000 -300.000000 65029.000000 56 32 2
301.000000 -300.000000 65028.000000 56 42 2
302.000000 -300.000000 65028.000000 61 83 2
303.000000 -300.000000 65028.000000 66 85 1
304.000000 -300.000000 65028.000000 63 93 1
305.000000 -300.000000 65028.000000 60 91 1
306.000000 -300.000000 65028.000000 45 65 1
307.000000 -300.000000 65028.000000 30 49 1
308.000000 -300.000000 65029.000000 26 17 1
309.000000 -300.000000 65029.000000 23 41 13
248.000000 -301.000000 65023.000000 14 9 1
249.000000 -301.000000 65023.000000 8 3 1
250.000000 -301.000000 65023.000000 6 3 1
251.000000 -301.000000 65024.000000 4 4 1
252.000000 -301.000000 65025.000000 5 4 1
253.000000 -301.000000 65026.000000 7 4 1
254.000000 -301.000000 65026.000000 8 7 1
255.000000 -301.000000 65027.000000 9 9 1
256.000000 -301.000000 65028.000000 10 8 1
257.000000 -301.000000 65029.000000 12 8 1
258.000000 -301.000000 65030.000000 14 14 1
259.000000 -301.000000 65031.000000 17 21 7
260.000000 -301.000000 65032.000000 18 29 14
261.000000 -301.000000 65033.000000 20 38 7
262.000000 -301.000000 65035.000000 28 41 1
263.000000 -301.000000 65035.000000 37 45 1
264.000000 -301.000000 65035.000000 31 39 1
265.000000 -301.000000 65038.000000 26 36 1
266.000000 -301.000000 65038.000000 28 36 1
267.000000 -301.000000 65039.000000 30 36 1
268.000000 -301.000000 65039.000000 25 44 1
269.000000 -301.000000 65039.000000 21 47 1
270.000000 -301.000000 65038.000000 18 46 1
271.000000 -301.000000 65039.000000 15 49 1
272.000000 -301.000000 65040.000000 19 49 1
273.000000 -301.000000 65040.000000 22 50 1
274.000000 -301.000000 65039.000000 25 51 1
275.000000 -301.000000 65038.000000 28 53 1
276.000000 -301.000000 65038.000000 29 57 1
277.000000 -301.000000 65038.000000 31 58 1
278.000000 -301.000000 65038.000000 25 56 1
279.000000 -301.000000 65038.000000 19 53 1
280.000000 -301.000000 65038.000000 23 53 1
281.000000 -301.000000 65036.000000 28 51 1
282.000000 -301.000000 65036.000000 30 57 1
283.000000 -301.000000 65035.000000 32 56 1
284.000000 -301.000000 65035.000000 34 60 1
285.000000 -301.000000 65035.000000 37 62 1
286.000000 -301.000000 65035.000000 42 62 1
287.000000 -301.000000 65035.000000 47 63 1
288.000000 -301.000000 65034.000000 46 62 1
289.000000 -301.000000 65034.000000 46 51 1
290.000000 -301.000000 65033.000000 49 40 1
291.000000 -301.000000 65033.000000 52 27 1
292.000000 -301.000000 65032.000000 63 29 1
293.000000 -301.000000 65032.000000 73 30 1
294.000000 -301.000000 65032.000000 71 33 1
295.000000 -301.000000 65032.000000 68 36 1
296.000000 -301.000000 65032.000000 69 36 1
297.000000 -301.000000 65031.000000 70 36 1
298.000000 -301.000000 65031.000000 64 33 1
299.000000 -301.000000 65029.000000 59 30 2
300.000000 -301.000000 65029.000000 57 26 3
301.000000 -301.000000 65029.000000 55 23 2
302.000000 -301.000000 65028.000000 60 75 2
303.000000 -301.000000 65028.000000 65 85 2
304.000000 -301.000000 65028.000000 66 87 2
305.000000 -301.000000 65028.000000 68 89 1
306.000000 -301.000000 65029.000000 42 59 1
307.000000 -301.000000 65029.000000 17 42 1
308.000000 -301.000000 65029.000000 18 14 1
309.000000 -301.000000 65029.000000 20 30 25
248.000000 -302.000000 65023.000000 12 2 1
249.000000 -302.000000 65023.000000 8 2 1
250.000000 -302.000000 65023.000000 5 3 1
251.000000 -302.000000 65024.000000 3 3 1
252.000000 -302.000000 65024.000000 3 3 1
253.000000 -302.000000 65025.000000 4 4 1
254.000000 -302.000000 65026.000000 8 5 1
255.000000 -302.000000 65027.000000 13 6 1
256.000000 -302.000000 65029.000000 12 7 1
257.000000 -302.000000 65029.000000 12 7 1
258.000000 -302.000000 65030.000000 14 7 1
259.000000 -302.000000 65031.000000 17 20 4
260.000000 -302.000000 65032.000000 17 19 7
261.000000 -302.000000 65032.000000 18 28 4
262.000000 -302.000000 65035.000000 30 37 1
263.000000 -302.000000 65035.000000 42 38 1
264.000000 -302.000000 65038.000000 34 40 1
265.000000 -302.000000 65038.000000 26 39 1
266.000000 -302.000000 65038.000000 25 39 1
267.000000 -302.000000 65039.000000 25 37 1
268.000000 -302.000000 65040.000000 23 43 1
269.000000 -302.000000 65039.000000 22 43 1
270.000000 -302.000000 65039.000000 18 44 1
271.000000 -302.000000 65039.000000 14 47 1
272.000000 -302.000000 65040.000000 18 51 1
273.000000 -302.000000 65040.000000 23 49 1
274.000000 -302.000000 65039.000000 26 54 1
275.000000 -302.000000 65039.000000 30 54 1
276.000000 -302.000000 65039.000000 31 58 1
277.000000 -302.000000 65039.000000 32 58 1
278.000000 -302.000000 65039.000000 28 55 1
279.000000 -302.000000 65038.000000 25 53 1
280.000000 -302.000000 65038.000000 28 53 1
281.000000 -302.000000 65037.000000 31 52 1
282.000000 -302.000000 65036.000000 31 58 1
283.000000 -302.000000 65035.000000 32 58 2
284.000000 -302.000000 65035.000000 35 59 4
285.000000 -302.000000 65035.000000 38 62 2
286.000000 -302.000000 65035.000000 45 62 1
287.000000 -302.000000 65035.000000 53 60 1
288.000000 -302.000000 65033.000000 51 58 1
289.000000 -302.000000 65033.000000 49 50 1
290.000000 -302.000000 65033.000000 51 38 1
291.000000 -302.000000 65033.000000 54 26 12
292.000000 -302.000000 65032.000000 60 32 24
293.000000 -302.000000 65032.000000 67 36 12
294.000000 -302.000000 65032.000000 69 45 1
295.000000 -302.000000 65032.000000 71 47 1
296.000000 -302.000000 65032.000000 73 49 2
297.000000 -302.000000 65031.000000 76 44 3
298.000000 -302.000000 65031.000000 69 39 5
299.000000 -302.000000 65030.000000 63 22 3
300.000000 -302.000000 65030.000000 59 12 2
301.000000 -302.000000 65029.000000 55 21 1
302.000000 -302.000000 65028.000000 59 68 1
303.000000 -302.000000 65028.000000 64 85 2
304.000000 -302.000000 65028.000000 70 83 2
305.000000 -302.000000 65028.000000 76 85 2
306.000000 -302.000000 65029.000000 40 53 3
307.000000 -302.000000 65028.000000 4 46 2
308.000000 -302.000000 65028.000000 11 12 1
309.000000 -302.000000 65028.000000 18 27 13
248.000000 -303.000000 65023.000000 18 13 1
249.000000 -303.000000 65023.000000 14 13 1
250.000000 -303.000000 65023.000000 11 14 1
251.000000 -303.000000 65024.000000 8 15 1
252.000000 -303.000000 65024.000000 8 11 1
253.000000 -303.000000 65025.000000 9 7 1
254.000000 -303.000000 65025.000000 20 14 1
255.000000 -303.000000 65028.000000 31 22 1
256.000000 -303.000000 65029.000000 26 24 1
257.000000 -303.000000 65031.000000 20 26 1
258.000000 -303.000000 65031.000000 20 22 1
259.000000 -303.000000 65032.000000 20 19 1
260.000000 -303.000000 65032.000000 17 18 1
261.000000 -303.000000 65034.000000 15 17 1
262.000000 -303.000000 65035.000000 20 21 1
263.000000 -303.000000 65036.000000 26 26 1
264.000000 -303.000000 65038.000000 23 28 1
265.000000 -303.000000 65038.000000 21 31 1
266.000000 -303.000000 65038.000000 21 31 1
267.000000 -303.000000 65039.000000 22 32 1
268.000000 -303.000000 65039.000000 24 38 1
269.000000 -303.000000 65040.000000 25 42 1
270.000000 -303.000000 65039.000000 20 44 1
271.000000 -303.000000 65040.000000 15 46 1
272.000000 -303.000000 65040.000000 18 47 1
273.000000 -303.000000 65040.000000 21 48 1
274.000000 -303.000000 65039.000000 25 54 1
275.000000 -303.000000 65038.000000 30 56 1
276.000000 -303.000000 65038.000000 30 58 1
277.000000 -303.000000 65038.000000 31 58 1
278.000000 -303.000000 65038.000000 28 56 1
279.000000 -303.000000 65038.000000 26 53 1
280.000000 -303.000000 65037.000000 31 53 1
281.000000 -303.000000 65037.000000 37 53 1
282.000000 -303.000000 65036.000000 34 57 1
283.000000 -303.000000 65035.000000 32 59 4
284.000000 -303.000000 65035.000000 34 58 7
285.000000 -303.000000 65035.000000 37 63 4
286.000000 -303.000000 65035.000000 42 61 1
287.000000 -303.000000 65035.000000 46 58 1
288.000000 -303.000000 65034.000000 46 57 1
289.000000 -303.000000 65033.000000 47 50 1
290.000000 -303.000000 65033.000000 50 29 1
291.000000 -303.000000 65033.000000 53 26 24
292.000000 -303.000000 65032.000000 61 37 47
293.000000 -303.000000 65032.000000 70 42 24
294.000000 -303.000000 65032.000000 70 48 1
295.000000 -303.000000 65032.000000 71 52 2
296.000000 -303.000000 65032.000000 73 53 3
297.000000 -303.000000 65031.000000 76 55 6
298.000000 -303.000000 65031.000000 68 34 10
299.000000 -303.000000 65030.000000 61 14 5
300.000000 -303.000000 65030.000000 56 12 1
301.000000 -303.000000 65029.000000 52 19 1
302.000000 -303.000000 65029.000000 58 74 1
303.000000 -303.000000 65028.000000 64 85 2
304.000000 -303.000000 65028.000000 66 82 3
305.000000 -303.000000 65029.000000 68 81 4
306.000000 -303.000000 65029.000000 46 60 5
307.000000 -303.000000 65029.000000 24 50 3
308.000000 -303.000000 65029.000000 29 37 2
309.000000 -303.000000 65029.000000 33 25 1
248.000000 -304.000000 65021.000000 25 26 1
249.000000 -304.000000 65023.000000 21 26 1
250.000000 -304.000000 65023.000000 17 26 1
251.000000 -304.000000 65024.000000 14 20 1
252.000000 -304.000000 65024.000000 14 12 1
253.000000 -304.000000 65025.000000 14 21 2
254.000000 -304.000000 65027.000000 32 35 4
255.000000 -304.000000 65029.000000 50 34 2
256.000000 -304.000000 65029.000000 39 34 1
257.000000 -304.000000 65030.000000 29 33 1
258.000000 -304.000000 65030.000000 26 32 1
259.000000 -304.000000 65031.000000 23 23 1
260.000000 -304.000000 65032.000000 18 14 1
261.000000 -304.000000 65034.000000 13 14 1
262.000000 -304.000000 65035.000000 11 14 1
263.000000 -304.000000 65036.000000 10 17 1
264.000000 -304.000000 65038.000000 13 21 1
265.000000 -304.000000 65038.000000 16 31 1
266.000000 -304.000000 65038.000000 18 28 1
267.000000 -304.000000 65039.000000 20 34 1
268.000000 -304.000000 65040.000000 24 34 1
269.000000 -304.000000 65039.000000 29 41 1
270.000000 -304.000000 65039.000000 22 39 1
271.000000 -304.000000 65040.000000 16 45 1
272.000000 -304.000000 65040.000000 17 46 1
273.000000 -304.000000 65039.000000 19 50 3
274.000000 -304.000000 65039.000000 24 54 5
275.000000 -304.000000 65038.000000 30 57 3
276.000000 -304.000000 65038.000000 30 58 1
277.000000 -304.000000 65038.000000 30 57 1
278.000000 -304.000000 65038.000000 28 57 1
279.000000 -304.000000 65038.000000 27 54 1
280.000000 -304.000000 65037.000000 35 51 1
281.000000 -304.000000 65037.000000 44 53 1
282.000000 -304.000000 65036.000000 38 57 1
283.000000 -304.000000 65035.000000 32 57 2
284.000000 -304.000000 65035.000000 34 57 4
285.000000 -304.000000 65035.000000 37 63 2
286.000000 -304.000000 65035.000000 38 61 1
287.000000 -304.000000 65035.000000 40 59 5
288.000000 -304.000000 65034.000000 42 57 9
289.000000 -304.000000 65034.000000 45 48 5
290.000000 -304.000000 65033.000000 49 21 2
291.000000 -304.000000 65033.000000 53 25 13
292.000000 -304.000000 65032.000000 63 43 24
293.000000 -304.000000 65032.000000 73 42 12
294.000000 -304.000000 65032.000000 72 52 1
295.000000 -304.000000 65032.000000 72 49 9
296.000000 -304.000000 65032.000000 74 58 18
297.000000 -304.000000 65032.000000 76 57 12
298.000000 -304.000000 65031.000000 68 29 7
299.000000 -304.000000 65031.000000 60 11 4
300.000000 -304.000000 65030.000000 54 13 1
301.000000 -304.000000 65029.000000 49 25 1
302.000000 -304.000000 65029.000000 57 81 1
303.000000 -304.000000 65028.000000 65 85 3
304.000000 -304.000000 65028.000000 62 82 5
305.000000 -304.000000 65028.000000 60 78 4
306.000000 -304.000000 65028.000000 52 67 3
307.000000 -304.000000 65028.000000 45 53 2
308.000000 -304.000000 65029.000000 47 52 1
309.000000 -304.000000 65029.000000 49 58 1
244.000000 -305.000000 65018.000000 57 50 3
245.000000 -305.000000 65019.000000 51 51 2
246.000000 -305.000000 65019.000000 42 46 1
247.000000 -305.000000 65020.000000 34 30 1
248.000000 -305.000000 65021.000000 26 26 1
249.000000 -305.000000 65023.000000 19 34 1
250.000000 -305.000000 65023.000000 16 28 1
251.000000 -305.000000 65023.000000 14 25 1
252.000000 -305.000000 65024.000000 14 21 1
253.000000 -305.000000 65026.000000 15 30 4
254.000000 -305.000000 65028.000000 25 38 7
255.000000 -305.000000 65029.000000 36 46 4
256.000000 -305.000000 65029.000000 30 44 1
257.000000 -305.000000 65030.000000 25 42 1
258.000000 -305.000000 65031.000000 25 40 2
259.000000 -305.000000 65032.000000 25 39 1
260.000000 -305.000000 65032.000000 21 26 1
261.000000 -305.000000 65032.000000 17 14 1
262.000000 -305.000000 65035.000000 12 15 1
263.000000 -305.000000 65037.000000 7 17 1
264.000000 -305.000000 65038.000000 11 19 1
265.000000 -305.000000 65038.000000 15 31 1
266.000000 -305.000000 65038.000000 19 29 1
267.000000 -305.000000 65039.000000 22 37 1
268.000000 -305.000000 65040.000000 23 39 1
269.000000 -305.000000 65040.000000 24 41 1
270.000000 -305.000000 65039.000000 18 42 1
271.000000 -305.000000 65040.000000 12 44 1
272.000000 -305.000000 65040.000000 17 47 1
273.000000 -305.000000 65039.000000 22 53 5
274.000000 -305.000000 65040.000000 27 55 9
275.000000 -305.000000 65039.000000 32 59 5
276.000000 -305.000000 65038.000000 30 58 1
277.000000 -305.000000 65038.000000 28 61 1
278.000000 -305.000000 65038.000000 25 57 1
279.000000 -305.000000 65038.000000 23 55 1
280.000000 -305.000000 65037.000000 27 54 1
281.000000 -305.000000 65037.000000 30 53 1
282.000000 -305.000000 65036.000000 29 58 1
283.000000 -305.000000 65035.000000 29 58 1
284.000000 -305.000000 65035.000000 31 58 1
285.000000 -305.000000 65035.000000 33 64 1
286.000000 -305.000000 65035.000000 35 62 1
287.000000 -305.000000 65035.000000 37 61 9
288.000000 -305.000000 65034.000000 40 59 17
289.000000 -305.000000 65034.000000 44 46 10
290.000000 -305.000000 65034.000000 48 20 3
291.000000 -305.000000 65034.000000 52 24 2
292.000000 -305.000000 65032.000000 60 33 1
293.000000 -305.000000 65032.000000 68 43 1
294.000000 -305.000000 65032.000000 69 45 2
295.000000 -305.000000 65032.000000 69 47 17
296.000000 -305.000000 65032.000000 73 53 33
297.000000 -305.000000 65032.000000 78 60 18
298.000000 -305.000000 65031.000000 69 19 4
299.000000 -305.000000 65030.000000 60 9 2
300.000000 -305.000000 65029.000000 56 13 1
301.000000 -305.000000 65029.000000 53 31 1
302.000000 -305.000000 65028.000000 61 77 1
303.000000 -305.000000 65028.000000 69 85 4
304.000000 -305.000000 65028.000000 65 84 7
305.000000 -305.000000 65028.000000 61 76 4
306.000000 -305.000000 65028.000000 54 67 1
307.000000 -305.000000 65028.000000 47 56 1
308.000000 -305.000000 65029.000000 48 55 1
309.000000 -305.000000 65029.000000 50 64 1
244.000000 -306.000000 65018.000000 58 52 2
245.000000 -306.000000 65019.000000 53 51 1
246.000000 -306.000000 65019.000000 45 54 1
247.000000 -306.000000 65020.000000 38 28 1
248.000000 -306.000000 65020.000000 27 26 1
249.000000 -306.000000 65023.000000 17 28 1
250.000000 -306.000000 65023.000000 15 30 1
251.000000 -306.000000 65025.000000 14 22 1
252.000000 -306.000000 65025.000000 15 17 1
253.000000 -306.000000 65026.000000 16 22 2
254.000000 -306.000000 65027.000000 19 42 4
255.000000 -306.000000 65029.000000 22 42 2
256.000000 -306.000000 65029.000000 21 42 1
257.000000 -306.000000 65031.000000 21 44 1
258.000000 -306.000000 65031.000000 24 46 1
259.000000 -306.000000 65032.000000 27 46 1
260.000000 -306.000000 65032.000000 24 46 1
261.000000 -306.000000 65032.000000 21 25 1
262.000000 -306.000000 65035.000000 13 20 1
263.000000 -306.000000 65035.000000 5 18 1
264.000000 -306.000000 65038.000000 10 17 1
265.000000 -306.000000 65038.000000 15 29 1
266.000000 -306.000000 65038.000000 20 30 1
267.000000 -306.000000 65039.000000 25 39 1
268.000000 -306.000000 65040.000000 22 42 1
269.000000 -306.000000 65040.000000 19 44 1
270.000000 -306.000000 65040.000000 14 46 1
271.000000 -306.000000 65040.000000 9 44 1
272.000000 -306.000000 65040.000000 17 48 1
273.000000 -306.000000 65039.000000 25 50 3
274.000000 -306.000000 65039.000000 29 57 5
275.000000 -306.000000 65039.000000 34 58 3
276.000000 -306.000000 65038.000000 30 58 1
277.000000 -306.000000 65038.000000 26 57 1
278.000000 -306.000000 65038.000000 23 57 1
279.000000 -306.000000 65038.000000 20 56 1
280.000000 -306.000000 65037.000000 18 55 1
281.000000 -306.000000 65036.000000 17 57 1
282.000000 -306.000000 65036.000000 21 59 1
283.000000 -306.000000 65035.000000 26 59 1
284.000000 -306.000000 65035.000000 28 60 1
285.000000 -306.000000 65035.000000 30 66 1
286.000000 -306.000000 65035.000000 32 68 1
287.000000 -306.000000 65035.000000 35 62 5
288.000000 -306.000000 65034.000000 39 62 9
289.000000 -306.000000 65034.000000 43 45 5
290.000000 -306.000000 65034.000000 47 19 2
291.000000 -306.000000 65034.000000 52 19 1
292.000000 -306.000000 65032.000000 58 19 1
293.000000 -306.000000 65032.000000 64 21 1
294.000000 -306.000000 65032.000000 65 23 1
295.000000 -306.000000 65032.000000 67 21 9
296.000000 -306.000000 65032.000000 73 20 17
297.000000 -306.000000 65032.000000 80 14 9
298.000000 -306.000000 65031.000000 70 9 2
299.000000 -306.000000 65030.000000 60 9 1
300.000000 -306.000000 65029.000000 58 14 1
301.000000 -306.000000 65029.000000 57 34 1
302.000000 -306.000000 65028.000000 65 73 1
303.000000 -306.000000 65028.000000 74 83 2
304.000000 -306.000000 65028.000000 68 86 4
305.000000 -306.000000 65028.000000 63 81 3
306.000000 -306.000000 65029.000000 56 67 1
307.000000 -306.000000 65029.000000 49 56 1
308.000000 -306.000000 65029.000000 50 59 1
309.000000 -306.000000 65029.000000 52 59 1
244.000000 -307.000000 65017.000000 57 52 1
245.000000 -307.000000 65019.000000 51 49 1
246.000000 -307.000000 65020.000000 42 45 1
247.000000 -307.000000 65020.000000 32 27 1
248.000000 -307.000000 65020.000000 23 21 1
249.000000 -307.000000 65021.000000 13 15 1
250.000000 -307.000000 65022.000000 12 17 1
251.000000 -307.000000 65022.000000 12 19 1
252.000000 -307.000000 65023.000000 13 15 1
253.000000 -307.000000 65026.000000 14 14 1
254.000000 -307.000000 65028.000000 16 28 1
255.000000 -307.000000 65029.000000 18 31 1
256.000000 -307.000000 65030.000000 16 34 1
257.000000 -307.000000 65031.000000 14 37 1
258.000000 -307.000000 65031.000000 19 40 1
259.000000 -307.000000 65032.000000 24 44 1
260.000000 -307.000000 65032.000000 24 44 1
261.000000 -307.000000 65034.000000 24 37 1
262.000000 -307.000000 65035.000000 18 29 1
263.000000 -307.000000 65037.000000 13 22 1
264.000000 -307.000000 65038.000000 15 25 1
265.000000 -307.000000 65038.000000 18 28 1
266.000000 -307.000000 65038.000000 26 35 2
267.000000 -307.000000 65039.000000 33 41 1
268.000000 -307.000000 65040.000000 26 38 1
269.000000 -307.000000 65040.000000 19 35 1
270.000000 -307.000000 65040.000000 16 43 1
271.000000 -307.000000 65040.000000 14 45 1
272.000000 -307.000000 65040.000000 18 47 1
273.000000 -307.000000 65039.000000 22 47 1
274.000000 -307.000000 65039.000000 27 55 1
275.000000 -307.000000 65039.000000 32 58 1
276.000000 -307.000000 65038.000000 30 58 1
277.000000 -307.000000 65038.000000 28 64 1
278.000000 -307.000000 65038.000000 27 62 1
279.000000 -307.000000 65036.000000 27 60 1
280.000000 -307.000000 65036.000000 26 59 1
281.000000 -307.000000 65036.000000 25 59 1
282.000000 -307.000000 65036.000000 26 59 1
283.000000 -307.000000 65035.000000 27 63 1
284.000000 -307.000000 65036.000000 29 64 1
285.000000 -307.000000 65035.000000 32 68 1
286.000000 -307.000000 65035.000000 34 68 1
287.000000 -307.000000 65035.000000 37 64 1
288.000000 -307.000000 65034.000000 41 62 1
289.000000 -307.000000 65034.000000 45 45 1
290.000000 -307.000000 65034.000000 49 30 1
291.000000 -307.000000 65034.000000 53 13 1
292.000000 -307.000000 65032.000000 58 13 1
293.000000 -307.000000 65032.000000 63 13 1
294.000000 -307.000000 65032.000000 65 15 1
295.000000 -307.000000 65032.000000 68 7 1
296.000000 -307.000000 65032.000000 73 20 1
297.000000 -307.000000 65032.000000 78 12 1
298.000000 -307.000000 65031.000000 68 11 1
299.000000 -307.000000 65030.000000 59 10 1
300.000000 -307.000000 65029.000000 54 17 1
301.000000 -307.000000 65029.000000 49 37 1
302.000000 -307.000000 65028.000000 59 76 1
303.000000 -307.000000 65028.000000 68 82 1
304.000000 -307.000000 65028.000000 65 86 2
305.000000 -307.000000 65028.000000 62 86 2
306.000000 -307.000000 65029.000000 53 63 2
307.000000 -307.000000 65029.000000 44 57 1
308.000000 -307.000000 65030.000000 47 56 1
309.000000 -307.000000 65030.000000 51 55 1
244.000000 -308.000000 65016.000000 56 52 1
245.000000 -308.000000 65016.000000 50 45 1
246.000000 -308.000000 65020.000000 38 37 1
247.000000 -308.000000 65020.000000 27 20 1
248.000000 -308.000000 65020.000000 18 2 1
249.000000 -308.000000 65021.000000 10 12 1
250.000000 -308.000000 65022.000000 10 16 2
251.000000 -308.000000 65022.000000 10 20 1
252.000000 -308.000000 65026.000000 11 12 1
253.000000 -308.000000 65026.000000 13 13 1
254.000000 -308.000000 65029.000000 14 25 1
255.000000 -308.000000 65030.000000 15 28 1
256.000000 -308.000000 65031.000000 11 14 1
257.000000 -308.000000 65031.000000 8 22 1
258.000000 -308.000000 65032.000000 14 30 1
259.000000 -308.000000 65032.000000 21 41 1
260.000000 -308.000000 65032.000000 24 42 1
261.000000 -308.000000 65032.000000 28 39 1
262.000000 -308.000000 65035.000000 24 37 1
263.000000 -308.000000 65037.000000 21 36 1
264.000000 -308.000000 65038.000000 21 35 1
265.000000 -308.000000 65038.000000 22 39 6
266.000000 -308.000000 65038.000000 32 43 11
267.000000 -308.000000 65038.000000 42 42 6
268.000000 -308.000000 65040.000000 31 34 1
269.000000 -308.000000 65040.000000 20 37 1
270.000000 -308.000000 65040.000000 19 40 1
271.000000 -308.000000 65040.000000 19 43 1
272.000000 -308.000000 65040.000000 19 47 1
273.000000 -308.000000 65039.000000 20 48 1
274.000000 -308.000000 65040.000000 25 53 1
275.000000 -308.000000 65039.000000 30 57 1
276.000000 -308.000000 65039.000000 30 58 1
277.000000 -308.000000 65038.000000 30 60 1
278.000000 -308.000000 65038.000000 32 62 1
279.000000 -308.000000 65038.000000 34 60 1
280.000000 -308.000000 65036.000000 33 59 1
281.000000 -308.000000 65036.000000 33 59 1
282.000000 -308.000000 65036.000000 31 60 1
283.000000 -308.000000 65036.000000 29 62 2
284.000000 -308.000000 65036.000000 31 65 4
285.000000 -308.000000 65036.000000 34 66 2
286.000000 -308.000000 65036.000000 36 68 1
287.000000 -308.000000 65035.000000 39 64 1
288.000000 -308.000000 65034.000000 43 63 1
289.000000 -308.000000 65034.000000 47 48 1
290.000000 -308.000000 65034.000000 51 42 1
291.000000 -308.000000 65033.000000 55 17 1
292.000000 -308.000000 65032.000000 59 14 1
293.000000 -308.000000 65032.000000 63 15 2
294.000000 -308.000000 65032.000000 66 17 4
295.000000 -308.000000 65032.000000 69 18 2
296.000000 -308.000000 65032.000000 72 20 1
297.000000 -308.000000 65032.000000 76 19 2
298.000000 -308.000000 65031.000000 67 19 2
299.000000 -308.000000 65030.000000 58 20 2
300.000000 -308.000000 65029.000000 50 21 1
301.000000 -308.000000 65029.000000 42 33 1
302.000000 -308.000000 65028.000000 52 79 1
303.000000 -308.000000 65028.000000 63 81 1
304.000000 -308.000000 65028.000000 62 87 2
305.000000 -308.000000 65028.000000 62 90 1
306.000000 -308.000000 65029.000000 50 59 1
307.000000 -308.000000 65029.000000 39 55 4
308.000000 -308.000000 65029.000000 45 49 6
309.000000 -308.000000 65029.000000 51 53 10
242.000000 -309.000000 65014.000000 67 51 3
243.000000 -309.000000 65014.000000 63 53 2
244.000000 -309.000000 65019.000000 56 53 1
245.000000 -309.000000 65019.000000 50 42 1
246.000000 -309.000000 65020.000000 38 32 1
247.000000 -309.000000 65020.000000 26 14 1
248.000000 -309.000000 65020.000000 15 12 1
249.000000 -309.000000 65021.000000 5 10 2
250.000000 -309.000000 65022.000000 7 15 3
251.000000 -309.000000 65022.000000 9 21 2
252.000000 -309.000000 65026.000000 11 12 1
253.000000 -309.000000 65026.000000 13 12 1
254.000000 -309.000000 65029.000000 20 25 2
255.000000 -309.000000 65031.000000 28 26 1
256.000000 -309.000000 65032.000000 16 13 1
257.000000 -309.000000 65032.000000 5 14 1
258.000000 -309.000000 65032.000000 14 33 1
259.000000 -309.000000 65032.000000 23 38 1
260.000000 -309.000000 65032.000000 26 42 1
261.000000 -309.000000 65034.000000 28 46 1
262.000000 -309.000000 65035.000000 26 45 1
263.000000 -309.000000 65037.000000 23 45 1
264.000000 -309.000000 65038.000000 23 45 1
265.000000 -309.000000 65038.000000 23 45 11
266.000000 -309.000000 65038.000000 27 44 21
267.000000 -309.000000 65038.000000 32 44 11
268.000000 -309.000000 65040.000000 24 42 1
269.000000 -309.000000 65040.000000 16 41 1
270.000000 -309.000000 65040.000000 16 41 1
271.000000 -309.000000 65040.000000 16 42 1
272.000000 -309.000000 65040.000000 15 44 1
273.000000 -309.000000 65039.000000 14 50 1
274.000000 -309.000000 65039.000000 23 53 1
275.000000 -309.000000 65039.000000 33 57 1
276.000000 -309.000000 65039.000000 32 58 1
277.000000 -309.000000 65038.000000 31 59 1
278.000000 -309.000000 65038.000000 33 60 1
279.000000 -309.000000 65038.000000 34 65 1
280.000000 -309.000000 65037.000000 37 60 1
281.000000 -309.000000 65037.000000 39 59 1
282.000000 -309.000000 65036.000000 35 59 1
283.000000 -309.000000 65036.000000 31 62 4
284.000000 -309.000000 65037.000000 33 65 7
285.000000 -309.000000 65036.000000 36 64 4
286.000000 -309.000000 65035.000000 38 64 1
287.000000 -309.000000 65035.000000 41 64 1
288.000000 -309.000000 65035.000000 43 59 1
289.000000 -309.000000 65035.000000 46 52 1
290.000000 -309.000000 65034.000000 50 41 1
291.000000 -309.000000 65034.000000 54 21 1
292.000000 -309.000000 65032.000000 58 13 1
293.000000 -309.000000 65032.000000 63 31 4
294.000000 -309.000000 65032.000000 67 32 7
295.000000 -309.000000 65032.000000 71 33 4
296.000000 -309.000000 65032.000000 74 38 2
297.000000 -309.000000 65032.000000 78 44 3
298.000000 -309.000000 65031.000000 69 20 4
299.000000 -309.000000 65030.000000 61 16 3
300.000000 -309.000000 65030.000000 54 16 2
301.000000 -309.000000 65029.000000 47 30 2
302.000000 -309.000000 65029.000000 56 73 2
303.000000 -309.000000 65029.000000 64 80 2
304.000000 -309.000000 65028.000000 64 86 2
305.000000 -309.000000 65028.000000 63 94 1
306.000000 -309.000000 65029.000000 55 64 1
307.000000 -309.000000 65030.000000 46 54 6
308.000000 -309.000000 65030.000000 51 52 12
309.000000 -309.000000 65029.000000 56 51 19
241.000000 -310.000000 65014.000000 77 50 2
242.000000 -310.000000 65015.000000 70 54 2
243.000000 -310.000000 65016.000000 63 53 1
244.000000 -310.000000 65017.000000 56 55 1
245.000000 -310.000000 65017.000000 50 48 1
246.000000 -310.000000 65020.000000 37 27 1
247.000000 -310.000000 65021.000000 25 23 1
248.000000 -310.000000 65021.000000 13 7 1
249.000000 -310.000000 65021.000000 1 10 1
250.000000 -310.000000 65023.000000 5 14 2
251.000000 -310.000000 65025.000000 9 13 1
252.000000 -310.000000 65026.000000 11 13 1
253.000000 -310.000000 65027.000000 13 19 3
254.000000 -310.000000 65029.000000 27 26 5
255.000000 -310.000000 65031.000000 41 31 3
256.000000 -310.000000 65032.000000 22 13 1
257.000000 -310.000000 65032.000000 3 16 1
258.000000 -310.000000 65032.000000 14 36 1
259.000000 -310.000000 65032.000000 26 43 1
260.000000 -310.000000 65033.000000 27 51 1
261.000000 -310.000000 65034.000000 29 46 1
262.000000 -310.000000 65035.000000 27 49 1
263.000000 -310.000000 65037.000000 26 47 1
264.000000 -310.000000 65038.000000 25 46 1
265.000000 -310.000000 65038.000000 24 45 6
266.000000 -310.000000 65040.000000 23 48 11
267.000000 -310.000000 65040.000000 23 47 6
268.000000 -310.000000 65040.000000 18 46 1
269.000000 -310.000000 65040.000000 13 40 1
270.000000 -310.000000 65040.000000 13 34 1
271.000000 -310.000000 65040.000000 13 42 1
272.000000 -310.000000 65040.000000 11 42 1
273.000000 -310.000000 65040.000000 9 52 3
274.000000 -310.000000 65040.000000 22 54 5
275.000000 -310.000000 65040.000000 36 58 3
276.000000 -310.000000 65040.000000 34 60 1
277.000000 -310.000000 65039.000000 33 59 1
278.000000 -310.000000 65039.000000 34 59 1
279.000000 -310.000000 65038.000000 35 60 1
280.000000 -310.000000 65038.000000 40 62 1
281.000000 -310.000000 65038.000000 46 60 1
282.000000 -310.000000 65037.000000 39 58 1
283.000000 -310.000000 65037.000000 33 63 2
284.000000 -310.000000 65037.000000 35 65 4
285.000000 -310.000000 65036.000000 38 63 2
286.000000 -310.000000 65036.000000 41 59 1
287.000000 -310.000000 65035.000000 44 57 1
288.000000 -310.000000 65035.000000 44 55 1
289.000000 -310.000000 65035.000000 45 52 1
290.000000 -310.000000 65035.000000 49 41 1
291.000000 -310.000000 65034.000000 53 17 1
292.000000 -310.000000 65033.000000 58 12 1
293.000000 -310.000000 65033.000000 63 26 9
294.000000 -310.000000 65032.000000 68 46 17
295.000000 -310.000000 65032.000000 74 46 9
296.000000 -310.000000 65032.000000 77 46 1
297.000000 -310.000000 65032.000000 80 37 2
298.000000 -310.000000 65031.000000 72 21 2
299.000000 -310.000000 65030.000000 65 15 2
300.000000 -310.000000 65029.000000 59 12 1
301.000000 -310.000000 65029.000000 53 23 1
302.000000 -310.000000 65028.000000 59 68 2
303.000000 -310.000000 65028.000000 66 81 11
304.000000 -310.000000 65028.000000 65 86 20
305.000000 -310.000000 65028.000000 65 88 11
306.000000 -310.000000 65029.000000 59 69 2
307.000000 -310.000000 65029.000000 54 63 6
308.000000 -310.000000 65029.000000 57 57 10
309.000000 -310.000000 65029.000000 61 66 14
241.000000 -311.000000 65013.000000 71 51 1
242.000000 -311.000000 65013.000000 67 52 1
243.000000 -311.000000 65017.000000 62 53 1
244.000000 -311.000000 65018.000000 56 54 1
245.000000 -311.000000 65019.000000 50 55 1
246.000000 -311.000000 65020.000000 40 38 1
247.000000 -311.000000 65021.000000 31 32 1
248.000000 -311.000000 65023.000000 22 21 1
249.000000 -311.000000 65023.000000 13 11 1
250.000000 -311.000000 65025.000000 12 14 1
251.000000 -311.000000 65026.000000 11 17 1
252.000000 -311.000000 65027.000000 12 12 1
253.000000 -311.000000 65029.000000 13 26 5
254.000000 -311.000000 65031.000000 23 31 9
255.000000 -311.000000 65031.000000 34 37 5
256.000000 -311.000000 65032.000000 22 27 1
257.000000 -311.000000 65032.000000 10 18 1
258.000000 -311.000000 65032.000000 19 41 1
259.000000 -311.000000 65032.000000 27 48 1
260.000000 -311.000000 65034.000000 29 51 1
261.000000 -311.000000 65034.000000 31 47 1
262.000000 -311.000000 65035.000000 30 47 1
263.000000 -311.000000 65037.000000 30 51 1
264.000000 -311.000000 65038.000000 28 45 1
265.000000 -311.000000 65038.000000 27 46 1
266.000000 -311.000000 65039.000000 22 48 1
267.000000 -311.000000 65039.000000 18 48 1
268.000000 -311.000000 65040.000000 16 45 1
269.000000 -311.000000 65040.000000 15 40 1
270.000000 -311.000000 65040.000000 16 41 1
271.000000 -311.000000 65040.000000 17 42 1
272.000000 -311.000000 65040.000000 15 44 1
273.000000 -311.000000 65040.000000 14 55 5
274.000000 -311.000000 65040.000000 22 54 9
275.000000 -311.000000 65040.000000 31 60 5
276.000000 -311.000000 65040.000000 30 60 1
277.000000 -311.000000 65039.000000 30 63 1
278.000000 -311.000000 65038.000000 31 60 1
279.000000 -311.000000 65038.000000 33 60 1
280.000000 -311.000000 65038.000000 37 63 1
281.000000 -311.000000 65037.000000 41 65 1
282.000000 -311.000000 65037.000000 34 64 1
283.000000 -311.000000 65037.000000 27 64 1
284.000000 -311.000000 65037.000000 31 63 1
285.000000 -311.000000 65036.000000 35 62 1
286.000000 -311.000000 65035.000000 41 58 1
287.000000 -311.000000 65035.000000 47 55 1
288.000000 -311.000000 65035.000000 46 55 1
289.000000 -311.000000 65035.000000 45 53 1
290.000000 -311.000000 65035.000000 48 37 1
291.000000 -311.000000 65035.000000 52 13 1
292.000000 -311.000000 65033.000000 58 17 1
293.000000 -311.000000 65033.000000 64 22 14
294.000000 -311.000000 65032.000000 69 38 28
295.000000 -311.000000 65032.000000 74 44 14
296.000000 -311.000000 65032.000000 74 45 1
297.000000 -311.000000 65031.000000 75 30 1
298.000000 -311.000000 65030.000000 69 24 1
299.000000 -311.000000 65029.000000 64 14 1
300.000000 -311.000000 65029.000000 59 15 1
301.000000 -311.000000 65029.000000 55 16 1
302.000000 -311.000000 65029.000000 62 73 2
303.000000 -311.000000 65028.000000 69 82 20
304.000000 -311.000000 65028.000000 65 84 39
305.000000 -311.000000 65028.000000 61 82 21
306.000000 -311.000000 65029.000000 60 74 3
307.000000 -311.000000 65029.000000 59 70 6
308.000000 -311.000000 65029.000000 63 73 9
241.000000 -312.000000 65013.000000 66 50 6
242.000000 -312.000000 65013.000000 64 49 7
243.000000 -312.000000 65017.000000 62 49 6
244.000000 -312.000000 65017.000000 56 49 5
245.000000 -312.000000 65018.000000 51 49 3
246.000000 -312.000000 65020.000000 44 49 1
247.000000 -312.000000 65022.000000 37 39 1
248.000000 -312.000000 65022.000000 31 32 1
249.000000 -312.000000 65023.000000 26 29 1
250.000000 -312.000000 65025.000000 20 27 1
251.000000 -312.000000 65026.000000 14 19 1
252.000000 -312.000000 65027.000000 14 12 1
253.000000 -312.000000 65029.000000 14 23 3
254.000000 -312.000000 65031.000000 20 39 5
255.000000 -312.000000 65032.000000 27 37 3
256.000000 -312.000000 65032.000000 22 35 1
257.000000 -312.000000 65032.000000 18 41 11
258.000000 -312.000000 65032.000000 23 47 22
259.000000 -312.000000 65033.000000 29 49 11
260.000000 -312.000000 65035.000000 31 51 1
261.000000 -312.000000 65035.000000 33 45 1
262.000000 -312.000000 65036.000000 33 46 1
263.000000 -312.000000 65038.000000 34 45 1
264.000000 -312.000000 65038.000000 32 44 1
265.000000 -312.000000 65038.000000 30 46 1
266.000000 -312.000000 65039.000000 22 50 2
267.000000 -312.000000 65039.000000 14 47 1
268.000000 -312.000000 65040.000000 15 44 1
269.000000 -312.000000 65040.000000 17 45 1
270.000000 -312.000000 65040.000000 19 46 1
271.000000 -312.000000 65040.000000 22 44 1
272.000000 -312.000000 65040.000000 20 47 1
273.000000 -312.000000 65040.000000 19 51 3
274.000000 -312.000000 65040.000000 23 55 6
275.000000 -312.000000 65040.000000 27 56 3
276.000000 -312.000000 65040.000000 27 57 1
277.000000 -312.000000 65040.000000 27 60 1
278.000000 -312.000000 65038.000000 29 61 1
279.000000 -312.000000 65038.000000 31 62 1
280.000000 -312.000000 65038.000000 33 64 1
281.000000 -312.000000 65038.000000 36 64 1
282.000000 -312.000000 65038.000000 28 69 1
283.000000 -312.000000 65037.000000 21 69 1
284.000000 -312.000000 65037.000000 26 69 1
285.000000 -312.000000 65036.000000 32 64 1
286.000000 -312.000000 65035.000000 41 58 1
287.000000 -312.000000 65035.000000 51 55 1
288.000000 -312.000000 65035.000000 48 56 1
289.000000 -312.000000 65035.000000 45 50 1
290.000000 -312.000000 65035.000000 48 34 1
291.000000 -312.000000 65035.000000 51 16 1
292.000000 -312.000000 65033.000000 58 21 1
293.000000 -312.000000 65033.000000 65 22 8
294.000000 -312.000000 65033.000000 70 30 15
295.000000 -312.000000 65032.000000 75 44 8
296.000000 -312.000000 65032.000000 72 44 1
297.000000 -312.000000 65032.000000 70 33 1
298.000000 -312.000000 65031.000000 66 28 1
299.000000 -312.000000 65030.000000 63 14 1
300.000000 -312.000000 65030.000000 60 17 1
301.000000 -312.000000 65029.000000 58 23 1
302.000000 -312.000000 65029.000000 65 79 1
303.000000 -312.000000 65029.000000 73 82 10
304.000000 -312.000000 65028.000000 65 86 20
305.000000 -312.000000 65027.000000 58 83 11
306.000000 -312.000000 65028.000000 61 80 2
307.000000 -312.000000 65028.000000 65 78 5
308.000000 -312.000000 65028.000000 69 76 9
244.000000 -313.000000 65019.000000 55 49 9
245.000000 -313.000000 65020.000000 50 46 5
246.000000 -313.000000 65020.000000 44 48 1
247.000000 -313.000000 65022.000000 38 47 1
248.000000 -313.000000 65022.000000 34 41 1
249.000000 -313.000000 65023.000000 30 35 1
250.000000 -313.000000 65025.000000 23 30 1
251.000000 -313.000000 65026.000000 17 22 1
252.000000 -313.000000 65027.000000 17 21 1
253.000000 -313.000000 65029.000000 17 21 1
254.000000 -313.000000 65031.000000 23 37 1
255.000000 -313.000000 65031.000000 28 44 1
256.000000 -313.000000 65032.000000 26 44 1
257.000000 -313.000000 65032.000000 24 45 22
258.000000 -313.000000 65032.000000 27 46 44
259.000000 -313.000000 65033.000000 30 50 22
260.000000 -313.000000 65035.000000 31 47 1
261.000000 -313.000000 65035.000000 31 44 1
262.000000 -313.000000 65037.000000 33 44 1
263.000000 -313.000000 65038.000000 34 44 1
264.000000 -313.000000 65038.000000 32 44 1
265.000000 -313.000000 65038.000000 30 47 2
266.000000 -313.000000 65038.000000 24 47 4
267.000000 -313.000000 65039.000000 18 47 2
268.000000 -313.000000 65040.000000 18 47 1
269.000000 -313.000000 65040.000000 19 47 1
270.000000 -313.000000 65040.000000 23 44 1
271.000000 -313.000000 65040.000000 28 43 1
272.000000 -313.000000 65040.000000 25 45 1
273.000000 -313.000000 65040.000000 21 47 2
274.000000 -313.000000 65040.000000 24 51 3
275.000000 -313.000000 65040.000000 26 56 2
276.000000 -313.000000 65040.000000 27 57 1
277.000000 -313.000000 65040.000000 28 59 1
278.000000 -313.000000 65039.000000 27 64 1
279.000000 -313.000000 65038.000000 26 71 1
280.000000 -313.000000 65038.000000 29 64 1
281.000000 -313.000000 65038.000000 32 64 1
282.000000 -313.000000 65038.000000 28 63 1
283.000000 -313.000000 65038.000000 25 63 1
284.000000 -313.000000 65037.000000 29 69 1
285.000000 -313.000000 65037.000000 33 67 1
286.000000 -313.000000 65035.000000 39 60 1
287.000000 -313.000000 65035.000000 46 55 1
288.000000 -313.000000 65035.000000 44 58 1
289.000000 -313.000000 65035.000000 43 47 1
290.000000 -313.000000 65035.000000 47 35 1
291.000000 -313.000000 65035.000000 52 19 1
292.000000 -313.000000 65034.000000 58 20 1
293.000000 -313.000000 65033.000000 65 22 2
294.000000 -313.000000 65033.000000 70 29 3
295.000000 -313.000000 65032.000000 76 45 2
296.000000 -313.000000 65032.000000 72 40 2
297.000000 -313.000000 65032.000000 69 36 1
298.000000 -313.000000 65031.000000 65 20 1
299.000000 -313.000000 65031.000000 61 14 1
300.000000 -313.000000 65030.000000 58 17 1
301.000000 -313.000000 65030.000000 56 31 1
302.000000 -313.000000 65029.000000 62 79 1
303.000000 -313.000000 65029.000000 68 82 1
304.000000 -313.000000 65028.000000 65 86 1
305.000000 -313.000000 65027.000000 62 84 1
306.000000 -313.000000 65026.000000 65 80 1
307.000000 -313.000000 65026.000000 68 77 5
308.000000 -313.000000 65026.000000 71 78 9
244.000000 -314.000000 65020.000000 54 49 9
245.000000 -314.000000 65020.000000 49 49 5
246.000000 -314.000000 65020.000000 44 50 1
247.000000 -314.000000 65022.000000 40 48 1
248.000000 -314.000000 65023.000000 37 47 1
249.000000 -314.000000 65024.000000 34 39 1
250.000000 -314.000000 65025.000000 27 33 1
251.000000 -314.000000 65026.000000 21 28 1
252.000000 -314.000000 65027.000000 21 19 1
253.000000 -314.000000 65029.000000 21 27 8
254.000000 -314.000000 65031.000000 25 36 15
255.000000 -314.000000 65031.000000 30 47 8
256.000000 -314.000000 65032.000000 30 44 1
257.000000 -314.000000 65032.000000 30 45 11
258.000000 -314.000000 65032.000000 31 46 22
259.000000 -314.000000 65033.000000 32 45 11
260.000000 -314.000000 65035.000000 31 44 1
261.000000 -314.000000 65036.000000 30 43 1
262.000000 -314.000000 65037.000000 32 43 1
263.000000 -314.000000 65038.000000 35 44 1
264.000000 -314.000000 65038.000000 32 44 1
265.000000 -314.000000 65038.000000 30 45 1
266.000000 -314.000000 65039.000000 26 47 2
267.000000 -314.000000 65039.000000 22 46 1
268.000000 -314.000000 65040.000000 21 45 1
269.000000 -314.000000 65040.000000 21 46 1
270.000000 -314.000000 65041.000000 28 43 1
271.000000 -314.000000 65040.000000 35 43 1
272.000000 -314.000000 65041.000000 29 44 1
273.000000 -314.000000 65040.000000 24 47 6
274.000000 -314.000000 65040.000000 25 47 11
275.000000 -314.000000 65040.000000 26 54 6
276.000000 -314.000000 65040.000000 27 58 1
277.000000 -314.000000 65040.000000 29 61 1
278.000000 -314.000000 65039.000000 25 68 1
279.000000 -314.000000 65038.000000 22 66 1
280.000000 -314.000000 65038.000000 25 65 1
281.000000 -314.000000 65038.000000 29 63 1
282.000000 -314.000000 65038.000000 29 62 1
283.000000 -314.000000 65038.000000 29 66 1
284.000000 -314.000000 65037.000000 31 69 2
285.000000 -314.000000 65036.000000 34 66 1
286.000000 -314.000000 65035.000000 37 63 1
287.000000 -314.000000 65035.000000 41 61 1
288.000000 -314.000000 65035.000000 41 60 1
289.000000 -314.000000 65035.000000 42 50 1
290.000000 -314.000000 65035.000000 47 36 1
291.000000 -314.000000 65035.000000 53 20 1
292.000000 -314.000000 65034.000000 59 18 1
293.000000 -314.000000 65033.000000 65 23 1
294.000000 -314.000000 65033.000000 71 29 2
295.000000 -314.000000 65032.000000 77 43 3
296.000000 -314.000000 65032.000000 72 34 5
297.000000 -314.000000 65032.000000 68 23 3
298.000000 -314.000000 65031.000000 63 12 2
299.000000 -314.000000 65031.000000 59 14 3
300.000000 -314.000000 65031.000000 56 18 4
301.000000 -314.000000 65030.000000 54 36 2
302.000000 -314.000000 65030.000000 59 79 1
303.000000 -314.000000 65029.000000 64 83 1
304.000000 -314.000000 65028.000000 65 87 1
305.000000 -314.000000 65027.000000 67 84 1
306.000000 -314.000000 65026.000000 69 81 1
307.000000 -314.000000 65026.000000 71 81 4
308.000000 -314.000000 65026.000000 74 82 6
243.000000 -315.000000 65017.000000 61 55 8
244.000000 -315.000000 65020.000000 55 54 10
245.000000 -315.000000 65020.000000 49 54 5
246.000000 -315.000000 65020.000000 45 50 1
247.000000 -315.000000 65021.000000 42 52 1
248.000000 -315.000000 65023.000000 42 48 1
249.000000 -315.000000 65024.000000 42 44 1
250.000000 -315.000000 65025.000000 35 39 1
251.000000 -315.000000 65026.000000 27 34 1
252.000000 -315.000000 65027.000000 27 36 1
253.000000 -315.000000 65029.000000 27 39 15
254.000000 -315.000000 65031.000000 29 44 29
255.000000 -315.000000 65031.000000 30 50 15
256.000000 -315.000000 65032.000000 32 50 1
257.000000 -315.000000 65032.000000 34 51 1
258.000000 -315.000000 65033.000000 32 52 1
259.000000 -315.000000 65034.000000 30 53 1
260.000000 -315.000000 65035.000000 31 51 1
261.000000 -315.000000 65036.000000 32 49 1
262.000000 -315.000000 65037.000000 33 46 1
263.000000 -315.000000 65038.000000 34 44 1
264.000000 -315.000000 65038.000000 32 44 1
265.000000 -315.000000 65038.000000 30 44 1
266.000000 -315.000000 65039.000000 26 44 1
267.000000 -315.000000 65039.000000 22 44 1
268.000000 -315.000000 65040.000000 21 45 1
269.000000 -315.000000 65040.000000 20 46 1
270.000000 -315.000000 65040.000000 24 46 1
271.000000 -315.000000 65040.000000 28 46 1
272.000000 -315.000000 65040.000000 27 47 1
273.000000 -315.000000 65040.000000 26 50 10
274.000000 -315.000000 65040.000000 27 51 19
275.000000 -315.000000 65040.000000 28 53 10
276.000000 -315.000000 65040.000000 28 58 1
277.000000 -315.000000 65040.000000 29 64 1
278.000000 -315.000000 65039.000000 29 63 1
279.000000 -315.000000 65039.000000 28 62 1
280.000000 -315.000000 65038.000000 30 63 1
281.000000 -315.000000 65038.000000 32 61 1
282.000000 -315.000000 65038.000000 31 65 1
283.000000 -315.000000 65038.000000 31 69 2
284.000000 -315.000000 65037.000000 32 68 4
285.000000 -315.000000 65036.000000 34 65 2
286.000000 -315.000000 65035.000000 37 64 1
287.000000 -315.000000 65035.000000 41 64 1
288.000000 -315.000000 65035.000000 39 62 1
289.000000 -315.000000 65036.000000 38 53 1
290.000000 -315.000000 65035.000000 45 41 1
291.000000 -315.000000 65035.000000 51 22 1
292.000000 -315.000000 65035.000000 55 17 1
293.000000 -315.000000 65034.000000 60 10 1
294.000000 -315.000000 65034.000000 65 16 1
295.000000 -315.000000 65033.000000 70 41 5
296.000000 -315.000000 65032.000000 66 19 9
297.000000 -315.000000 65032.000000 62 10 6
298.000000 -315.000000 65031.000000 61 12 3
299.000000 -315.000000 65031.000000 59 14 5
300.000000 -315.000000 65031.000000 58 20 8
301.000000 -315.000000 65030.000000 58 41 4
302.000000 -315.000000 65030.000000 62 78 1
303.000000 -315.000000 65029.000000 66 84 1
304.000000 -315.000000 65028.000000 67 84 1
305.000000 -315.000000 65027.000000 69 85 1
306.000000 -315.000000 65026.000000 71 85 2
307.000000 -315.000000 65026.000000 74 85 3
308.000000 -315.000000 65026.000000 75 84 4
243.000000 -316.000000 65017.000000 63 56 16
244.000000 -316.000000 65020.000000 56 54 6
245.000000 -316.000000 65020.000000 49 52 3
246.000000 -316.000000 65022.000000 46 50 1
247.000000 -316.000000 65023.000000 44 50 1
248.000000 -316.000000 65023.000000 47 49 1
249.000000 -316.000000 65024.000000 51 47 1
250.000000 -316.000000 65025.000000 42 46 2
251.000000 -316.000000 65026.000000 34 46 1
252.000000 -316.000000 65026.000000 34 46 1
253.000000 -316.000000 65030.000000 34 49 8
254.000000 -316.000000 65031.000000 32 53 15
255.000000 -316.000000 65031.000000 31 50 8
256.000000 -316.000000 65032.000000 34 50 1
257.000000 -316.000000 65032.000000 38 50 1
258.000000 -316.000000 65033.000000 33 56 1
259.000000 -316.000000 65035.000000 29 55 1
260.000000 -316.000000 65037.000000 32 55 1
261.000000 -316.000000 65037.000000 35 52 1
262.000000 -316.000000 65038.000000 34 51 1
263.000000 -316.000000 65038.000000 34 48 1
264.000000 -316.000000 65038.000000 32 46 1
265.000000 -316.000000 65039.000000 30 44 1
266.000000 -316.000000 65040.000000 26 45 1
267.000000 -316.000000 65040.000000 22 45 1
268.000000 -316.000000 65040.000000 21 45 1
269.000000 -316.000000 65040.000000 20 46 1
270.000000 -316.000000 65040.000000 20 50 1
271.000000 -316.000000 65040.000000 21 46 1
272.000000 -316.000000 65040.000000 25 48 1
273.000000 -316.000000 65040.000000 29 50 5
274.000000 -316.000000 65040.000000 29 58 10
275.000000 -316.000000 65040.000000 30 58 5
276.000000 -316.000000 65040.000000 30 59 1
277.000000 -316.000000 65040.000000 30 59 1
278.000000 -316.000000 65039.000000 32 60 1
279.000000 -316.000000 65039.000000 35 63 1
280.000000 -316.000000 65038.000000 35 64 1
281.000000 -316.000000 65038.000000 36 62 1
282.000000 -316.000000 65038.000000 34 70 1
283.000000 -316.000000 65037.000000 33 69 1
284.000000 -316.000000 65037.000000 34 68 2
285.000000 -316.000000 65036.000000 35 66 1
286.000000 -316.000000 65035.000000 38 65 1
287.000000 -316.000000 65036.000000 41 64 8
288.000000 -316.000000 65035.000000 38 64 15
289.000000 -316.000000 65036.000000 35 56 8
290.000000 -316.000000 65035.000000 42 47 1
291.000000 -316.000000 65035.000000 50 35 1
292.000000 -316.000000 65035.000000 52 17 1
293.000000 -316.000000 65035.000000 55 12 1
294.000000 -316.000000 65034.000000 59 3 1
295.000000 -316.000000 65033.000000 63 3 3
296.000000 -316.000000 65032.000000 60 4 5
297.000000 -316.000000 65032.000000 57 4 3
298.000000 -316.000000 65031.000000 58 5 2
299.000000 -316.000000 65031.000000 60 17 3
300.000000 -316.000000 65031.000000 61 22 4
301.000000 -316.000000 65030.000000 62 44 2
302.000000 -316.000000 65029.000000 65 78 1
303.000000 -316.000000 65029.000000 68 84 1
304.000000 -316.000000 65028.000000 70 85 1
305.000000 -316.000000 65028.000000 72 85 1
306.000000 -316.000000 65026.000000 74 89 1
307.000000 -316.000000 65026.000000 77 89 3
308.000000 -316.000000 65026.000000 77 89 6
309.000000 -316.000000 65026.000000 77 85 11
243.000000 -317.000000 65017.000000 70 58 24
244.000000 -317.000000 65017.000000 61 53 2
245.000000 -317.000000 65020.000000 52 49 1
246.000000 -317.000000 65020.000000 48 49 1
247.000000 -317.000000 65023.000000 44 51 1
248.000000 -317.000000 65023.000000 45 49 1
249.000000 -317.000000 65024.000000 46 49 2
250.000000 -317.000000 65025.000000 41 48 3
251.000000 -317.000000 65026.000000 37 48 2
252.000000 -317.000000 65026.000000 38 46 1
