ply
    format ascii 1.0
    element vertex 10242
    property float x
    property float y
    property float z
    property uchar red
    property uchar green
    property uchar blue
    end_header
282.000000 -264.000000 65032.000000 50 59 40
283.000000 -264.000000 65032.000000 52 58 23
284.000000 -264.000000 65032.000000 51 53 7
285.000000 -264.000000 65032.000000 51 52 4
286.000000 -264.000000 65032.000000 50 43 1
287.000000 -264.000000 65032.000000 50 49 1
288.000000 -264.000000 65032.000000 56 54 1
289.000000 -264.000000 65031.000000 62 60 1
290.000000 -264.000000 65032.000000 59 59 1
291.000000 -264.000000 65030.000000 56 61 1
292.000000 -264.000000 65029.000000 48 61 1
293.000000 -264.000000 65029.000000 41 64 1
294.000000 -264.000000 65029.000000 45 65 1
295.000000 -264.000000 65029.000000 50 76 1
296.000000 -264.000000 65029.000000 59 80 2
297.000000 -264.000000 65028.000000 69 81 13
298.000000 -264.000000 65028.000000 62 83 23
299.000000 -264.000000 65028.000000 56 76 12
300.000000 -264.000000 65027.000000 55 67 1
301.000000 -264.000000 65027.000000 54 62 8
243.000000 -265.000000 65012.000000 5 1 3
244.000000 -265.000000 65013.000000 18 3 3
245.000000 -265.000000 65013.000000 31 24 4
246.000000 -265.000000 65013.000000 38 73 5
247.000000 -265.000000 65014.000000 46 60 3
248.000000 -265.000000 65015.000000 35 32 1
249.000000 -265.000000 65017.000000 23 30 1
250.000000 -265.000000 65017.000000 37 51 1
251.000000 -265.000000 65019.000000 51 52 1
252.000000 -265.000000 65020.000000 45 54 1
253.000000 -265.000000 65021.000000 39 57 1
254.000000 -265.000000 65022.000000 40 56 2
255.000000 -265.000000 65025.000000 41 53 1
256.000000 -265.000000 65029.000000 34 52 1
257.000000 -265.000000 65029.000000 26 48 1
258.000000 -265.000000 65031.000000 29 49 1
259.000000 -265.000000 65032.000000 32 51 1
260.000000 -265.000000 65032.000000 33 51 1
261.000000 -265.000000 65033.000000 35 51 1
262.000000 -265.000000 65034.000000 29 51 1
263.000000 -265.000000 65035.000000 24 48 1
264.000000 -265.000000 65035.000000 21 48 1
265.000000 -265.000000 65034.000000 19 49 1
266.000000 -265.000000 65034.000000 24 47 1
267.000000 -265.000000 65034.000000 29 46 1
268.000000 -265.000000 65033.000000 27 45 1
269.000000 -265.000000 65033.000000 26 45 1
270.000000 -265.000000 65032.000000 23 40 1
271.000000 -265.000000 65032.000000 20 36 1
272.000000 -265.000000 65032.000000 25 45 2
273.000000 -265.000000 65032.000000 29 49 1
274.000000 -265.000000 65032.000000 29 44 1
275.000000 -265.000000 65032.000000 30 51 1
276.000000 -265.000000 65032.000000 33 52 1
277.000000 -265.000000 65032.000000 36 55 1
278.000000 -265.000000 65032.000000 36 55 1
279.000000 -265.000000 65032.000000 36 56 1
280.000000 -265.000000 65032.000000 40 58 1
281.000000 -265.000000 65032.000000 45 60 10
282.000000 -265.000000 65032.000000 49 59 20
283.000000 -265.000000 65032.000000 52 59 16
284.000000 -265.000000 65032.000000 54 56 12
285.000000 -265.000000 65032.000000 57 51 6
286.000000 -265.000000 65032.000000 55 50 1
287.000000 -265.000000 65032.000000 53 50 1
288.000000 -265.000000 65032.000000 59 57 1
289.000000 -265.000000 65031.000000 65 62 1
290.000000 -265.000000 65032.000000 60 60 1
291.000000 -265.000000 65030.000000 56 61 1
292.000000 -265.000000 65030.000000 50 60 1
293.000000 -265.000000 65029.000000 44 65 1
294.000000 -265.000000 65029.000000 47 69 1
295.000000 -265.000000 65029.000000 50 75 1
296.000000 -265.000000 65029.000000 56 79 2
297.000000 -265.000000 65028.000000 62 80 23
298.000000 -265.000000 65028.000000 57 81 44
299.000000 -265.000000 65028.000000 52 73 22
300.000000 -265.000000 65028.000000 50 65 1
301.000000 -265.000000 65028.000000 49 63 12
243.000000 -266.000000 65012.000000 4 2 2
244.000000 -266.000000 65012.000000 18 6 2
245.000000 -266.000000 65013.000000 32 26 4
246.000000 -266.000000 65013.000000 39 80 6
247.000000 -266.000000 65014.000000 47 61 3
248.000000 -266.000000 65013.000000 28 22 1
249.000000 -266.000000 65017.000000 10 35 1
250.000000 -266.000000 65018.000000 33 47 1
251.000000 -266.000000 65020.000000 56 51 1
252.000000 -266.000000 65020.000000 47 50 1
253.000000 -266.000000 65021.000000 39 53 1
254.000000 -266.000000 65022.000000 36 57 1
255.000000 -266.000000 65025.000000 34 52 1
256.000000 -266.000000 65025.000000 31 50 1
257.000000 -266.000000 65032.000000 28 49 1
258.000000 -266.000000 65032.000000 29 48 1
259.000000 -266.000000 65032.000000 30 51 1
260.000000 -266.000000 65032.000000 30 52 1
261.000000 -266.000000 65033.000000 31 53 1
262.000000 -266.000000 65034.000000 28 54 1
263.000000 -266.000000 65035.000000 26 46 1
264.000000 -266.000000 65035.000000 21 50 1
265.000000 -266.000000 65034.000000 16 49 8
266.000000 -266.000000 65034.000000 22 49 15
267.000000 -266.000000 65034.000000 29 49 8
268.000000 -266.000000 65033.000000 25 49 1
269.000000 -266.000000 65033.000000 22 43 1
270.000000 -266.000000 65033.000000 20 42 1
271.000000 -266.000000 65032.000000 18 43 1
272.000000 -266.000000 65033.000000 24 45 2
273.000000 -266.000000 65032.000000 30 44 1
274.000000 -266.000000 65033.000000 29 44 1
275.000000 -266.000000 65033.000000 28 47 1
276.000000 -266.000000 65033.000000 31 50 1
277.000000 -266.000000 65032.000000 34 55 1
278.000000 -266.000000 65032.000000 37 53 1
279.000000 -266.000000 65032.000000 40 54 1
280.000000 -266.000000 65032.000000 41 59 1
281.000000 -266.000000 65032.000000 43 61 5
282.000000 -266.000000 65032.000000 48 63 10
283.000000 -266.000000 65032.000000 53 61 9
284.000000 -266.000000 65032.000000 58 59 7
285.000000 -266.000000 65032.000000 63 51 4
286.000000 -266.000000 65032.000000 59 54 1
287.000000 -266.000000 65032.000000 56 55 1
288.000000 -266.000000 65032.000000 62 61 1
289.000000 -266.000000 65032.000000 68 61 7
290.000000 -266.000000 65032.000000 62 60 14
291.000000 -266.000000 65030.000000 56 60 7
292.000000 -266.000000 65030.000000 51 60 1
293.000000 -266.000000 65029.000000 47 63 1
294.000000 -266.000000 65029.000000 49 74 1
295.000000 -266.000000 65029.000000 51 74 1
296.000000 -266.000000 65029.000000 53 78 2
297.000000 -266.000000 65029.000000 55 78 12
298.000000 -266.000000 65028.000000 51 79 22
299.000000 -266.000000 65028.000000 48 68 11
300.000000 -266.000000 65027.000000 46 57 1
301.000000 -266.000000 65027.000000 45 69 6
302.000000 -266.000000 65027.000000 55 81 12
303.000000 -266.000000 65020.000000 65 84 6
304.000000 -266.000000 65020.000000 56 59 1
243.000000 -267.000000 65011.000000 4 3 1
244.000000 -267.000000 65011.000000 17 9 1
245.000000 -267.000000 65013.000000 30 29 4
246.000000 -267.000000 65013.000000 45 74 8
247.000000 -267.000000 65014.000000 60 63 4
248.000000 -267.000000 65014.000000 42 52 1
249.000000 -267.000000 65017.000000 24 41 1
250.000000 -267.000000 65018.000000 35 50 1
251.000000 -267.000000 65021.000000 47 51 1
252.000000 -267.000000 65021.000000 42 50 1
253.000000 -267.000000 65023.000000 36 49 1
254.000000 -267.000000 65023.000000 35 50 1
255.000000 -267.000000 65026.000000 34 51 1
256.000000 -267.000000 65028.000000 31 51 1
257.000000 -267.000000 65029.000000 29 51 1
258.000000 -267.000000 65031.000000 29 53 1
259.000000 -267.000000 65031.000000 30 55 1
260.000000 -267.000000 65032.000000 29 54 1
261.000000 -267.000000 65033.000000 28 54 1
262.000000 -267.000000 65034.000000 25 52 1
263.000000 -267.000000 65035.000000 23 45 1
264.000000 -267.000000 65035.000000 20 45 1
265.000000 -267.000000 65035.000000 18 45 15
266.000000 -267.000000 65035.000000 23 47 29
267.000000 -267.000000 65035.000000 27 53 15
268.000000 -267.000000 65035.000000 24 47 1
269.000000 -267.000000 65034.000000 20 41 1
270.000000 -267.000000 65034.000000 15 41 1
271.000000 -267.000000 65034.000000 11 42 1
272.000000 -267.000000 65033.000000 18 43 2
273.000000 -267.000000 65033.000000 25 45 1
274.000000 -267.000000 65033.000000 27 45 1
275.000000 -267.000000 65033.000000 29 45 1
276.000000 -267.000000 65032.000000 31 50 1
277.000000 -267.000000 65032.000000 34 56 1
278.000000 -267.000000 65032.000000 37 54 1
279.000000 -267.000000 65032.000000 40 53 1
280.000000 -267.000000 65032.000000 41 54 1
281.000000 -267.000000 65032.000000 43 55 1
282.000000 -267.000000 65032.000000 47 54 1
283.000000 -267.000000 65032.000000 51 53 2
284.000000 -267.000000 65032.000000 54 52 3
285.000000 -267.000000 65032.000000 57 52 2
286.000000 -267.000000 65032.000000 55 54 1
287.000000 -267.000000 65032.000000 53 57 1
288.000000 -267.000000 65032.000000 57 60 1
289.000000 -267.000000 65032.000000 61 61 14
290.000000 -267.000000 65032.000000 58 59 27
291.000000 -267.000000 65031.000000 55 58 14
292.000000 -267.000000 65030.000000 51 59 1
293.000000 -267.000000 65030.000000 47 62 1
294.000000 -267.000000 65029.000000 45 68 1
295.000000 -267.000000 65029.000000 42 74 2
296.000000 -267.000000 65029.000000 39 71 3
297.000000 -267.000000 65029.000000 36 68 2
298.000000 -267.000000 65028.000000 33 65 1
299.000000 -267.000000 65027.000000 31 63 1
300.000000 -267.000000 65026.000000 27 48 1
301.000000 -267.000000 65024.000000 23 34 1
302.000000 -267.000000 65023.000000 35 55 1
303.000000 -267.000000 65023.000000 48 77 1
304.000000 -267.000000 65023.000000 47 73 1
243.000000 -268.000000 65010.000000 5 2 1
244.000000 -268.000000 65010.000000 17 12 2
245.000000 -268.000000 65010.000000 29 28 3
246.000000 -268.000000 65011.000000 51 68 5
247.000000 -268.000000 65013.000000 74 63 3
248.000000 -268.000000 65013.000000 56 52 1
249.000000 -268.000000 65015.000000 38 52 1
250.000000 -268.000000 65016.000000 38 53 1
251.000000 -268.000000 65016.000000 39 49 1
252.000000 -268.000000 65024.000000 36 47 1
253.000000 -268.000000 65024.000000 34 48 1
254.000000 -268.000000 65024.000000 34 50 1
255.000000 -268.000000 65027.000000 34 48 1
256.000000 -268.000000 65029.000000 32 46 1
257.000000 -268.000000 65029.000000 30 52 1
258.000000 -268.000000 65030.000000 30 58 1
259.000000 -268.000000 65030.000000 31 58 1
260.000000 -268.000000 65031.000000 28 58 1
261.000000 -268.000000 65033.000000 25 54 1
262.000000 -268.000000 65034.000000 22 50 1
263.000000 -268.000000 65035.000000 20 47 1
264.000000 -268.000000 65035.000000 20 44 1
265.000000 -268.000000 65035.000000 21 45 8
266.000000 -268.000000 65035.000000 23 46 15
267.000000 -268.000000 65035.000000 26 46 8
268.000000 -268.000000 65035.000000 22 46 1
269.000000 -268.000000 65035.000000 19 43 1
270.000000 -268.000000 65034.000000 11 38 1
271.000000 -268.000000 65032.000000 4 37 1
272.000000 -268.000000 65032.000000 12 50 1
273.000000 -268.000000 65032.000000 21 52 1
274.000000 -268.000000 65032.000000 25 54 1
275.000000 -268.000000 65032.000000 30 52 1
276.000000 -268.000000 65032.000000 32 51 1
277.000000 -268.000000 65033.000000 34 56 1
278.000000 -268.000000 65032.000000 37 55 1
279.000000 -268.000000 65033.000000 40 54 1
280.000000 -268.000000 65032.000000 41 53 1
281.000000 -268.000000 65033.000000 43 51 1
282.000000 -268.000000 65032.000000 46 50 1
283.000000 -268.000000 65032.000000 49 51 1
284.000000 -268.000000 65032.000000 50 52 2
285.000000 -268.000000 65032.000000 51 53 1
286.000000 -268.000000 65032.000000 50 55 1
287.000000 -268.000000 65032.000000 50 57 1
288.000000 -268.000000 65032.000000 52 59 2
289.000000 -268.000000 65032.000000 55 59 8
290.000000 -268.000000 65032.000000 54 64 14
291.000000 -268.000000 65031.000000 54 57 7
292.000000 -268.000000 65030.000000 51 59 1
293.000000 -268.000000 65029.000000 48 60 1
294.000000 -268.000000 65029.000000 41 63 1
295.000000 -268.000000 65029.000000 34 48 1
296.000000 -268.000000 65029.000000 26 33 2
297.000000 -268.000000 65028.000000 18 21 1
298.000000 -268.000000 65028.000000 16 10 1
299.000000 -268.000000 65027.000000 14 6 1
300.000000 -268.000000 65025.000000 7 2 1
301.000000 -268.000000 65023.000000 1 4 1
302.000000 -268.000000 65023.000000 16 7 2
303.000000 -268.000000 65023.000000 31 28 1
304.000000 -268.000000 65022.000000 38 50 1
305.000000 -268.000000 65022.000000 46 65 1
243.000000 -269.000000 65008.000000 3 1 2
244.000000 -269.000000 65009.000000 11 6 4
245.000000 -269.000000 65009.000000 19 27 3
246.000000 -269.000000 65009.000000 36 45 2
247.000000 -269.000000 65013.000000 53 63 2
248.000000 -269.000000 65013.000000 41 51 2
249.000000 -269.000000 65015.000000 29 50 2
250.000000 -269.000000 65016.000000 31 50 2
251.000000 -269.000000 65016.000000 34 48 1
252.000000 -269.000000 65024.000000 28 48 1
253.000000 -269.000000 65026.000000 22 48 1
254.000000 -269.000000 65026.000000 28 48 1
255.000000 -269.000000 65027.000000 34 44 1
256.000000 -269.000000 65029.000000 33 48 1
257.000000 -269.000000 65029.000000 32 53 1
258.000000 -269.000000 65030.000000 31 53 1
259.000000 -269.000000 65031.000000 30 54 1
260.000000 -269.000000 65030.000000 28 54 1
261.000000 -269.000000 65033.000000 25 54 1
262.000000 -269.000000 65034.000000 23 53 1
263.000000 -269.000000 65035.000000 22 53 1
264.000000 -269.000000 65035.000000 21 50 1
265.000000 -269.000000 65035.000000 20 48 1
266.000000 -269.000000 65035.000000 25 46 1
267.000000 -269.000000 65035.000000 31 49 1
268.000000 -269.000000 65035.000000 25 45 1
269.000000 -269.000000 65035.000000 20 45 1
270.000000 -269.000000 65035.000000 14 39 1
271.000000 -269.000000 65033.000000 8 33 1
272.000000 -269.000000 65033.000000 15 48 1
273.000000 -269.000000 65032.000000 23 53 1
274.000000 -269.000000 65032.000000 25 53 1
275.000000 -269.000000 65032.000000 27 53 1
276.000000 -269.000000 65032.000000 29 52 1
277.000000 -269.000000 65033.000000 32 56 1
278.000000 -269.000000 65032.000000 35 55 1
279.000000 -269.000000 65033.000000 38 58 1
280.000000 -269.000000 65032.000000 40 54 1
281.000000 -269.000000 65033.000000 43 50 1
282.000000 -269.000000 65032.000000 46 50 2
283.000000 -269.000000 65032.000000 48 51 1
284.000000 -269.000000 65032.000000 48 51 1
285.000000 -269.000000 65032.000000 48 47 1
286.000000 -269.000000 65032.000000 42 46 1
287.000000 -269.000000 65032.000000 35 45 2
288.000000 -269.000000 65032.000000 44 51 4
289.000000 -269.000000 65032.000000 53 58 2
290.000000 -269.000000 65032.000000 56 57 1
291.000000 -269.000000 65031.000000 59 57 1
292.000000 -269.000000 65030.000000 51 58 1
293.000000 -269.000000 65029.000000 43 59 1
294.000000 -269.000000 65029.000000 33 44 1
295.000000 -269.000000 65029.000000 24 30 1
296.000000 -269.000000 65029.000000 16 19 1
297.000000 -269.000000 65028.000000 9 9 1
298.000000 -269.000000 65028.000000 13 6 1
299.000000 -269.000000 65027.000000 16 4 1
300.000000 -269.000000 65025.000000 17 6 1
301.000000 -269.000000 65023.000000 18 9 2
302.000000 -269.000000 65023.000000 29 8 4
303.000000 -269.000000 65023.000000 41 7 2
304.000000 -269.000000 65023.000000 43 49 1
305.000000 -269.000000 65023.000000 46 60 2
243.000000 -270.000000 65008.000000 2 1 1
244.000000 -270.000000 65008.000000 5 1 2
245.000000 -270.000000 65009.000000 9 5 2
246.000000 -270.000000 65010.000000 20 10 2
247.000000 -270.000000 65011.000000 32 24 1
248.000000 -270.000000 65011.000000 26 39 1
249.000000 -270.000000 65017.000000 21 46 1
250.000000 -270.000000 65017.000000 25 51 1
251.000000 -270.000000 65017.000000 29 50 3
253.000000 -270.000000 65026.000000 11 33 3
254.000000 -270.000000 65026.000000 23 47 1
255.000000 -270.000000 65026.000000 35 49 3
256.000000 -270.000000 65028.000000 35 51 5
257.000000 -270.000000 65029.000000 35 51 3
258.000000 -270.000000 65029.000000 32 51 1
259.000000 -270.000000 65031.000000 30 52 1
260.000000 -270.000000 65030.000000 28 54 1
261.000000 -270.000000 65033.000000 26 53 1
262.000000 -270.000000 65034.000000 25 53 1
263.000000 -270.000000 65035.000000 24 53 1
264.000000 -270.000000 65035.000000 22 53 1
265.000000 -270.000000 65035.000000 20 47 1
266.000000 -270.000000 65035.000000 28 46 1
267.000000 -270.000000 65035.000000 36 47 1
268.000000 -270.000000 65035.000000 28 42 1
269.000000 -270.000000 65035.000000 21 45 1
270.000000 -270.000000 65035.000000 16 40 1
271.000000 -270.000000 65034.000000 12 43 1
272.000000 -270.000000 65033.000000 19 46 1
273.000000 -270.000000 65032.000000 26 47 1
274.000000 -270.000000 65032.000000 25 49 1
275.000000 -270.000000 65032.000000 25 53 1
276.000000 -270.000000 65032.000000 27 53 2
277.000000 -270.000000 65033.000000 30 54 1
278.000000 -270.000000 65032.000000 33 56 1
279.000000 -270.000000 65033.000000 36 56 1
280.000000 -270.000000 65032.000000 40 56 1
281.000000 -270.000000 65033.000000 44 56 1
282.000000 -270.000000 65032.000000 46 57 1
283.000000 -270.000000 65032.000000 48 53 1
284.000000 -270.000000 65032.000000 47 50 1
285.000000 -270.000000 65032.000000 46 44 1
286.000000 -270.000000 65032.000000 33 42 1
287.000000 -270.000000 65032.000000 21 45 6
288.000000 -270.000000 65032.000000 36 44 12
289.000000 -270.000000 65032.000000 51 58 6
290.000000 -270.000000 65032.000000 58 59 1
291.000000 -270.000000 65032.000000 65 55 1
292.000000 -270.000000 65031.000000 52 52 1
293.000000 -270.000000 65030.000000 39 53 1
294.000000 -270.000000 65030.000000 26 30 2
295.000000 -270.000000 65029.000000 14 27 1
296.000000 -270.000000 65029.000000 7 10 1
297.000000 -270.000000 65028.000000 1 7 1
298.000000 -270.000000 65029.000000 10 16 1
299.000000 -270.000000 65029.000000 19 17 1
300.000000 -270.000000 65029.000000 27 18 1
301.000000 -270.000000 65020.000000 35 45 3
302.000000 -270.000000 65022.000000 43 72 5
303.000000 -270.000000 65022.000000 51 60 3
304.000000 -270.000000 65022.000000 49 48 1
305.000000 -270.000000 65023.000000 47 54 1
243.000000 -271.000000 65008.000000 2 3 1
244.000000 -271.000000 65008.000000 8 4 1
245.000000 -271.000000 65008.000000 15 12 1
246.000000 -271.000000 65010.000000 25 21 2
247.000000 -271.000000 65010.000000 36 30 1
248.000000 -271.000000 65016.000000 26 36 1
249.000000 -271.000000 65017.000000 16 42 1
250.000000 -271.000000 65017.000000 23 48 1
251.000000 -271.000000 65017.000000 31 53 5
252.000000 -271.000000 65017.000000 26 27 9
253.000000 -271.000000 65026.000000 21 10 5
254.000000 -271.000000 65026.000000 29 49 1
255.000000 -271.000000 65027.000000 38 52 5
256.000000 -271.000000 65028.000000 35 52 10
257.000000 -271.000000 65029.000000 33 52 5
258.000000 -271.000000 65030.000000 29 50 1
259.000000 -271.000000 65031.000000 24 48 1
260.000000 -271.000000 65031.000000 24 53 1
261.000000 -271.000000 65034.000000 25 50 1
262.000000 -271.000000 65035.000000 23 50 1
263.000000 -271.000000 65035.000000 22 50 1
264.000000 -271.000000 65035.000000 21 52 1
265.000000 -271.000000 65035.000000 19 46 1
266.000000 -271.000000 65035.000000 26 46 1
267.000000 -271.000000 65035.000000 32 46 1
268.000000 -271.000000 65035.000000 26 46 1
269.000000 -271.000000 65035.000000 19 46 1
270.000000 -271.000000 65035.000000 15 45 1
271.000000 -271.000000 65034.000000 11 50 1
272.000000 -271.000000 65033.000000 21 49 1
273.000000 -271.000000 65032.000000 32 49 1
274.000000 -271.000000 65032.000000 29 50 1
275.000000 -271.000000 65033.000000 27 54 2
276.000000 -271.000000 65033.000000 27 53 3
277.000000 -271.000000 65033.000000 27 52 2
278.000000 -271.000000 65033.000000 31 55 1
279.000000 -271.000000 65033.000000 36 55 1
280.000000 -271.000000 65033.000000 39 56 1
281.000000 -271.000000 65033.000000 42 57 1
282.000000 -271.000000 65032.000000 45 57 1
283.000000 -271.000000 65032.000000 48 55 1
284.000000 -271.000000 65032.000000 48 51 1
285.000000 -271.000000 65032.000000 47 42 1
286.000000 -271.000000 65032.000000 41 44 1
287.000000 -271.000000 65032.000000 34 46 10
288.000000 -271.000000 65032.000000 43 52 20
289.000000 -271.000000 65032.000000 52 58 10
290.000000 -271.000000 65032.000000 55 59 1
291.000000 -271.000000 65032.000000 59 65 1
292.000000 -271.000000 65031.000000 48 56 1
293.000000 -271.000000 65031.000000 38 48 2
294.000000 -271.000000 65031.000000 30 36 4
295.000000 -271.000000 65029.000000 22 25 2
296.000000 -271.000000 65029.000000 16 9 1
297.000000 -271.000000 65029.000000 10 5 1
298.000000 -271.000000 65029.000000 17 28 1
299.000000 -271.000000 65029.000000 25 36 1
300.000000 -271.000000 65029.000000 35 51 1
301.000000 -271.000000 65020.000000 44 66 4
302.000000 -271.000000 65020.000000 56 75 7
303.000000 -271.000000 65021.000000 68 84 4
304.000000 -271.000000 65021.000000 60 62 1
305.000000 -271.000000 65021.000000 51 49 1
243.000000 -272.000000 65008.000000 3 2 1
244.000000 -272.000000 65008.000000 12 7 1
245.000000 -272.000000 65010.000000 21 25 3
246.000000 -272.000000 65010.000000 31 44 5
247.000000 -272.000000 65014.000000 41 39 3
248.000000 -272.000000 65015.000000 26 34 1
249.000000 -272.000000 65017.000000 11 43 1
250.000000 -272.000000 65017.000000 22 46 1
251.000000 -272.000000 65017.000000 34 51 3
252.000000 -272.000000 65017.000000 33 36 5
253.000000 -272.000000 65026.000000 32 44 3
254.000000 -272.000000 65026.000000 36 52 1
255.000000 -272.000000 65026.000000 41 52 3
256.000000 -272.000000 65029.000000 36 53 5
257.000000 -272.000000 65029.000000 32 54 3
258.000000 -272.000000 65031.000000 25 56 1
259.000000 -272.000000 65032.000000 19 54 1
260.000000 -272.000000 65032.000000 21 53 1
261.000000 -272.000000 65033.000000 24 51 1
262.000000 -272.000000 65034.000000 22 50 1
263.000000 -272.000000 65035.000000 21 50 1
264.000000 -272.000000 65035.000000 20 52 1
265.000000 -272.000000 65035.000000 19 50 1
266.000000 -272.000000 65035.000000 24 48 1
267.000000 -272.000000 65035.000000 29 46 1
268.000000 -272.000000 65035.000000 23 49 1
269.000000 -272.000000 65035.000000 18 46 1
270.000000 -272.000000 65035.000000 14 44 1
271.000000 -272.000000 65034.000000 10 47 1
272.000000 -272.000000 65033.000000 24 50 1
273.000000 -272.000000 65032.000000 39 49 1
274.000000 -272.000000 65033.000000 34 51 1
275.000000 -272.000000 65032.000000 29 52 1
276.000000 -272.000000 65033.000000 27 53 2
277.000000 -272.000000 65033.000000 25 53 1
278.000000 -272.000000 65033.000000 30 55 1
279.000000 -272.000000 65033.000000 36 55 1
280.000000 -272.000000 65032.000000 38 56 1
281.000000 -272.000000 65033.000000 41 56 1
282.000000 -272.000000 65032.000000 45 59 1
283.000000 -272.000000 65033.000000 49 55 1
284.000000 -272.000000 65032.000000 49 52 1
285.000000 -272.000000 65032.000000 49 50 1
286.000000 -272.000000 65032.000000 48 49 2
287.000000 -272.000000 65032.000000 48 48 18
288.000000 -272.000000 65032.000000 51 59 33
289.000000 -272.000000 65032.000000 54 58 17
290.000000 -272.000000 65032.000000 53 60 1
291.000000 -272.000000 65032.000000 53 62 1
292.000000 -272.000000 65031.000000 45 61 1
293.000000 -272.000000 65031.000000 38 52 1
294.000000 -272.000000 65031.000000 34 43 2
295.000000 -272.000000 65030.000000 30 34 2
296.000000 -272.000000 65029.000000 24 8 1
297.000000 -272.000000 65029.000000 19 19 1
298.000000 -272.000000 65029.000000 25 40 1
299.000000 -272.000000 65029.000000 32 45 3
300.000000 -272.000000 65029.000000 43 50 5
301.000000 -272.000000 65020.000000 54 62 6
302.000000 -272.000000 65020.000000 70 105 6
303.000000 -272.000000 65020.000000 86 92 3
304.000000 -272.000000 65020.000000 71 77 1
305.000000 -272.000000 65020.000000 56 70 1
306.000000 -272.000000 65020.000000 55 63 1
243.000000 -273.000000 65008.000000 3 2 1
244.000000 -273.000000 65008.000000 16 18 1
245.000000 -273.000000 65009.000000 30 39 4
246.000000 -273.000000 65010.000000 41 56 8
247.000000 -273.000000 65015.000000 53 73 4
248.000000 -273.000000 65016.000000 37 42 1
249.000000 -273.000000 65017.000000 21 44 1
250.000000 -273.000000 65017.000000 28 44 1
251.000000 -273.000000 65017.000000 35 49 1
255.000000 -273.000000 65026.000000 38 58 1
256.000000 -273.000000 65026.000000 34 59 1
257.000000 -273.000000 65029.000000 31 60 1
258.000000 -273.000000 65032.000000 27 57 1
259.000000 -273.000000 65032.000000 23 63 1
260.000000 -273.000000 65032.000000 23 53 2
261.000000 -273.000000 65034.000000 23 52 1
262.000000 -273.000000 65034.000000 21 49 1
263.000000 -273.000000 65035.000000 19 48 1
264.000000 -273.000000 65035.000000 18 44 1
265.000000 -273.000000 65035.000000 18 41 1
266.000000 -273.000000 65035.000000 24 43 1
267.000000 -273.000000 65035.000000 31 46 1
268.000000 -273.000000 65035.000000 25 46 1
269.000000 -273.000000 65035.000000 20 46 1
270.000000 -273.000000 65035.000000 16 44 1
271.000000 -273.000000 65035.000000 12 45 1
272.000000 -273.000000 65034.000000 22 50 1
273.000000 -273.000000 65033.000000 33 48 1
274.000000 -273.000000 65032.000000 28 49 1
275.000000 -273.000000 65032.000000 24 50 1
276.000000 -273.000000 65032.000000 25 53 1
277.000000 -273.000000 65032.000000 25 54 1
278.000000 -273.000000 65032.000000 29 56 1
279.000000 -273.000000 65032.000000 33 58 1
280.000000 -273.000000 65032.000000 38 57 1
281.000000 -273.000000 65032.000000 43 56 1
282.000000 -273.000000 65032.000000 50 58 1
283.000000 -273.000000 65032.000000 58 65 1
284.000000 -273.000000 65032.000000 52 54 1
285.000000 -273.000000 65032.000000 47 59 2
286.000000 -273.000000 65032.000000 46 47 4
287.000000 -273.000000 65032.000000 45 51 25
288.000000 -273.000000 65032.000000 53 54 47
289.000000 -273.000000 65032.000000 60 57 24
290.000000 -273.000000 65032.000000 56 60 2
291.000000 -273.000000 65032.000000 51 64 1
292.000000 -273.000000 65032.000000 46 60 1
293.000000 -273.000000 65032.000000 42 57 1
294.000000 -273.000000 65031.000000 40 58 1
295.000000 -273.000000 65031.000000 38 60 1
296.000000 -273.000000 65030.000000 34 46 2
297.000000 -273.000000 65030.000000 30 33 1
298.000000 -273.000000 65030.000000 24 43 1
299.000000 -273.000000 65030.000000 18 47 5
300.000000 -273.000000 65029.000000 33 48 10
301.000000 -273.000000 65020.000000 48 58 8
302.000000 -273.000000 65020.000000 62 100 6
303.000000 -273.000000 65020.000000 77 100 3
304.000000 -273.000000 65020.000000 70 83 1
305.000000 -273.000000 65020.000000 64 79 1
306.000000 -273.000000 65020.000000 63 80 1
243.000000 -274.000000 65008.000000 4 1 1
244.000000 -274.000000 65008.000000 21 30 1
245.000000 -274.000000 65010.000000 39 42 3
246.000000 -274.000000 65013.000000 52 82 5
247.000000 -274.000000 65014.000000 66 69 3
248.000000 -274.000000 65015.000000 48 51 1
249.000000 -274.000000 65015.000000 31 45 1
250.000000 -274.000000 65017.000000 34 42 1
251.000000 -274.000000 65017.000000 37 51 1
255.000000 -274.000000 65026.000000 36 55 1
256.000000 -274.000000 65026.000000 33 56 1
257.000000 -274.000000 65029.000000 30 58 1
258.000000 -274.000000 65032.000000 28 58 1
259.000000 -274.000000 65032.000000 27 56 5
260.000000 -274.000000 65032.000000 25 54 10
261.000000 -274.000000 65034.000000 23 51 5
262.000000 -274.000000 65034.000000 20 49 1
263.000000 -274.000000 65035.000000 17 48 1
264.000000 -274.000000 65035.000000 17 42 1
265.000000 -274.000000 65035.000000 17 42 1
266.000000 -274.000000 65035.000000 25 42 1
267.000000 -274.000000 65035.000000 34 46 1
268.000000 -274.000000 65035.000000 28 46 1
269.000000 -274.000000 65035.000000 22 45 1
270.000000 -274.000000 65035.000000 18 44 1
271.000000 -274.000000 65035.000000 14 46 1
272.000000 -274.000000 65033.000000 20 50 1
273.000000 -274.000000 65033.000000 27 49 1
274.000000 -274.000000 65032.000000 23 49 1
275.000000 -274.000000 65032.000000 20 51 1
276.000000 -274.000000 65032.000000 23 53 1
277.000000 -274.000000 65032.000000 26 55 1
278.000000 -274.000000 65032.000000 28 58 1
279.000000 -274.000000 65032.000000 31 58 1
280.000000 -274.000000 65032.000000 38 51 1
281.000000 -274.000000 65032.000000 46 53 7
282.000000 -274.000000 65032.000000 56 58 14
283.000000 -274.000000 65032.000000 67 57 9
284.000000 -274.000000 65032.000000 56 57 5
285.000000 -274.000000 65032.000000 45 51 3
286.000000 -274.000000 65032.000000 44 45 2
287.000000 -274.000000 65032.000000 43 47 13
288.000000 -274.000000 65032.000000 55 50 24
289.000000 -274.000000 65032.000000 67 54 12
290.000000 -274.000000 65032.000000 58 60 1
291.000000 -274.000000 65032.000000 50 62 1
292.000000 -274.000000 65032.000000 48 60 1
293.000000 -274.000000 65032.000000 46 61 1
294.000000 -274.000000 65031.000000 46 63 1
295.000000 -274.000000 65030.000000 46 68 1
296.000000 -274.000000 65030.000000 43 77 2
297.000000 -274.000000 65031.000000 41 62 1
298.000000 -274.000000 65031.000000 22 47 1
299.000000 -274.000000 65030.000000 4 47 3
301.000000 -274.000000 65020.000000 42 59 5
302.000000 -274.000000 65020.000000 55 96 3
303.000000 -274.000000 65020.000000 69 100 2
304.000000 -274.000000 65020.000000 70 89 1
305.000000 -274.000000 65020.000000 72 87 1
306.000000 -274.000000 65020.000000 72 86 1
245.000000 -275.000000 65010.000000 38 46 1
246.000000 -275.000000 65013.000000 47 75 2
247.000000 -275.000000 65014.000000 57 65 1
248.000000 -275.000000 65014.000000 47 52 1
249.000000 -275.000000 65015.000000 37 46 1
250.000000 -275.000000 65015.000000 41 49 2
251.000000 -275.000000 65015.000000 45 53 1
258.000000 -275.000000 65032.000000 28 58 1
259.000000 -275.000000 65033.000000 26 51 9
260.000000 -275.000000 65033.000000 23 51 18
261.000000 -275.000000 65033.000000 20 51 9
262.000000 -275.000000 65034.000000 18 50 1
263.000000 -275.000000 65035.000000 16 49 1
264.000000 -275.000000 65035.000000 17 49 1
265.000000 -275.000000 65035.000000 19 49 1
266.000000 -275.000000 65035.000000 24 47 1
267.000000 -275.000000 65035.000000 30 46 1
268.000000 -275.000000 65035.000000 26 47 1
269.000000 -275.000000 65035.000000 22 49 1
270.000000 -275.000000 65035.000000 18 46 1
271.000000 -275.000000 65035.000000 14 47 1
272.000000 -275.000000 65034.000000 19 48 1
273.000000 -275.000000 65033.000000 25 52 1
274.000000 -275.000000 65033.000000 23 53 1
275.000000 -275.000000 65032.000000 22 54 1
276.000000 -275.000000 65032.000000 27 55 1
277.000000 -275.000000 65032.000000 33 57 1
278.000000 -275.000000 65032.000000 32 58 1
279.000000 -275.000000 65032.000000 32 59 1
280.000000 -275.000000 65032.000000 38 55 1
281.000000 -275.000000 65032.000000 45 51 14
282.000000 -275.000000 65032.000000 50 50 28
283.000000 -275.000000 65032.000000 56 50 18
284.000000 -275.000000 65032.000000 46 46 9
285.000000 -275.000000 65032.000000 37 42 5
286.000000 -275.000000 65032.000000 33 40 1
287.000000 -275.000000 65032.000000 30 39 1
288.000000 -275.000000 65032.000000 42 45 1
289.000000 -275.000000 65032.000000 55 51 1
290.000000 -275.000000 65032.000000 52 61 1
291.000000 -275.000000 65032.000000 49 64 1
292.000000 -275.000000 65032.000000 47 64 1
293.000000 -275.000000 65032.000000 45 64 1
294.000000 -275.000000 65032.000000 45 66 1
295.000000 -275.000000 65031.000000 46 74 1
296.000000 -275.000000 65031.000000 46 72 2
297.000000 -275.000000 65031.000000 47 71 1
298.000000 -275.000000 65031.000000 36 57 1
301.000000 -275.000000 65020.000000 51 60 2
302.000000 -275.000000 65020.000000 60 97 1
303.000000 -275.000000 65020.000000 70 101 1
304.000000 -275.000000 65020.000000 72 92 1
305.000000 -275.000000 65019.000000 74 89 1
306.000000 -275.000000 65019.000000 76 91 1
307.000000 -275.000000 65019.000000 78 94 1
243.000000 -276.000000 65010.000000 1 2 1
244.000000 -276.000000 65010.000000 19 41 1
245.000000 -276.000000 65013.000000 37 53 1
246.000000 -276.000000 65013.000000 43 69 2
247.000000 -276.000000 65014.000000 49 64 1
248.000000 -276.000000 65014.000000 46 54 1
249.000000 -276.000000 65015.000000 44 53 1
250.000000 -276.000000 65015.000000 48 53 1
251.000000 -276.000000 65015.000000 53 54 1
258.000000 -276.000000 65032.000000 28 58 1
259.000000 -276.000000 65033.000000 26 54 5
260.000000 -276.000000 65033.000000 22 53 9
261.000000 -276.000000 65034.000000 18 51 5
262.000000 -276.000000 65034.000000 17 51 1
263.000000 -276.000000 65035.000000 16 51 1
264.000000 -276.000000 65035.000000 18 51 1
265.000000 -276.000000 65035.000000 21 49 2
266.000000 -276.000000 65035.000000 24 50 4
267.000000 -276.000000 65035.000000 27 50 2
268.000000 -276.000000 65035.000000 24 50 1
269.000000 -276.000000 65035.000000 22 47 1
270.000000 -276.000000 65035.000000 18 46 1
271.000000 -276.000000 65035.000000 14 46 1
272.000000 -276.000000 65034.000000 18 47 1
273.000000 -276.000000 65034.000000 23 51 1
274.000000 -276.000000 65033.000000 24 54 1
275.000000 -276.000000 65033.000000 25 54 1
276.000000 -276.000000 65032.000000 32 58 1
277.000000 -276.000000 65032.000000 40 57 1
278.000000 -276.000000 65032.000000 36 59 1
279.000000 -276.000000 65032.000000 33 59 1
280.000000 -276.000000 65032.000000 38 59 1
281.000000 -276.000000 65032.000000 44 55 7
282.000000 -276.000000 65032.000000 44 54 14
283.000000 -276.000000 65032.000000 45 49 9
284.000000 -276.000000 65032.000000 37 45 5
285.000000 -276.000000 65032.000000 30 36 3
286.000000 -276.000000 65032.000000 23 21 1
287.000000 -276.000000 65032.000000 17 36 1
288.000000 -276.000000 65032.000000 30 36 1
289.000000 -276.000000 65032.000000 44 49 3
290.000000 -276.000000 65032.000000 46 62 5
291.000000 -276.000000 65032.000000 48 68 3
292.000000 -276.000000 65032.000000 46 73 1
293.000000 -276.000000 65032.000000 44 65 1
294.000000 -276.000000 65032.000000 45 69 1
295.000000 -276.000000 65031.000000 47 75 1
296.000000 -276.000000 65031.000000 50 85 2
301.000000 -276.000000 65020.000000 60 88 1
302.000000 -276.000000 65021.000000 66 99 1
303.000000 -276.000000 65020.000000 72 98 1
304.000000 -276.000000 65019.000000 74 96 1
305.000000 -276.000000 65019.000000 77 94 1
306.000000 -276.000000 65019.000000 80 93 1
307.000000 -276.000000 65019.000000 83 96 1
243.000000 -277.000000 65013.000000 1 3 1
244.000000 -277.000000 65013.000000 17 23 2
245.000000 -277.000000 65013.000000 34 61 2
246.000000 -277.000000 65013.000000 41 65 2
247.000000 -277.000000 65014.000000 49 63 1
248.000000 -277.000000 65015.000000 46 54 1
249.000000 -277.000000 65017.000000 43 51 1
250.000000 -277.000000 65019.000000 45 54 1
251.000000 -277.000000 65019.000000 47 55 1
258.000000 -277.000000 65033.000000 24 55 1
259.000000 -277.000000 65033.000000 23 56 1
260.000000 -277.000000 65034.000000 21 52 1
261.000000 -277.000000 65034.000000 19 51 1
262.000000 -277.000000 65034.000000 17 51 1
263.000000 -277.000000 65035.000000 15 51 1
264.000000 -277.000000 65035.000000 18 49 1
265.000000 -277.000000 65035.000000 22 48 4
266.000000 -277.000000 65035.000000 23 47 8
267.000000 -277.000000 65035.000000 25 47 4
268.000000 -277.000000 65035.000000 23 48 1
269.000000 -277.000000 65035.000000 21 46 1
270.000000 -277.000000 65035.000000 17 45 1
271.000000 -277.000000 65035.000000 14 44 1
272.000000 -277.000000 65033.000000 18 48 1
273.000000 -277.000000 65034.000000 22 50 1
274.000000 -277.000000 65034.000000 22 52 1
275.000000 -277.000000 65033.000000 23 55 1
276.000000 -277.000000 65032.000000 26 55 1
277.000000 -277.000000 65032.000000 29 56 1
278.000000 -277.000000 65032.000000 30 57 1
279.000000 -277.000000 65032.000000 31 58 1
280.000000 -277.000000 65032.000000 36 58 1
281.000000 -277.000000 65032.000000 40 56 1
282.000000 -277.000000 65033.000000 42 53 1
283.000000 -277.000000 65033.000000 44 49 1
284.000000 -277.000000 65033.000000 37 43 1
285.000000 -277.000000 65032.000000 30 30 1
286.000000 -277.000000 65033.000000 26 32 1
287.000000 -277.000000 65033.000000 22 34 1
288.000000 -277.000000 65032.000000 31 36 1
289.000000 -277.000000 65032.000000 40 47 5
290.000000 -277.000000 65032.000000 42 59 9
291.000000 -277.000000 65032.000000 44 73 5
292.000000 -277.000000 65032.000000 41 70 1
293.000000 -277.000000 65032.000000 38 67 1
294.000000 -277.000000 65032.000000 42 70 1
295.000000 -277.000000 65032.000000 47 76 1
296.000000 -277.000000 65031.000000 50 79 2
302.000000 -277.000000 65021.000000 64 95 1
303.000000 -277.000000 65021.000000 66 98 1
304.000000 -277.000000 65019.000000 70 96 1
305.000000 -277.000000 65019.000000 75 93 1
241.000000 -278.000000 65013.000000 2 2 1
242.000000 -278.000000 65013.000000 2 2 1
243.000000 -278.000000 65013.000000 2 2 6
244.000000 -278.000000 65013.000000 16 5 11
245.000000 -278.000000 65013.000000 31 62 11
246.000000 -278.000000 65013.000000 40 67 11
247.000000 -278.000000 65014.000000 49 65 6
248.000000 -278.000000 65015.000000 45 55 1
249.000000 -278.000000 65017.000000 42 55 1
250.000000 -278.000000 65019.000000 41 55 1
251.000000 -278.000000 65020.000000 41 54 1
252.000000 -278.000000 65021.000000 40 59 1
253.000000 -278.000000 65021.000000 40 53 1
257.000000 -278.000000 65032.000000 19 49 1
258.000000 -278.000000 65032.000000 20 53 1
259.000000 -278.000000 65032.000000 21 52 1
260.000000 -278.000000 65034.000000 20 51 1
261.000000 -278.000000 65034.000000 20 51 1
262.000000 -278.000000 65035.000000 17 51 1
263.000000 -278.000000 65035.000000 14 49 1
264.000000 -278.000000 65035.000000 18 48 1
265.000000 -278.000000 65035.000000 23 47 2
266.000000 -278.000000 65035.000000 23 46 4
267.000000 -278.000000 65035.000000 24 47 2
268.000000 -278.000000 65035.000000 22 49 1
269.000000 -278.000000 65035.000000 20 45 1
270.000000 -278.000000 65035.000000 17 42 1
271.000000 -278.000000 65035.000000 14 43 2
272.000000 -278.000000 65035.000000 18 49 4
273.000000 -278.000000 65035.000000 22 49 2
274.000000 -278.000000 65034.000000 21 50 1
275.000000 -278.000000 65034.000000 21 50 1
276.000000 -278.000000 65034.000000 19 50 1
277.000000 -278.000000 65033.000000 18 51 1
278.000000 -278.000000 65033.000000 24 53 1
279.000000 -278.000000 65033.000000 30 58 1
280.000000 -278.000000 65033.000000 33 58 1
281.000000 -278.000000 65033.000000 37 54 1
282.000000 -278.000000 65033.000000 40 52 1
283.000000 -278.000000 65033.000000 44 45 1
284.000000 -278.000000 65033.000000 37 41 1
285.000000 -278.000000 65033.000000 31 28 1
286.000000 -278.000000 65033.000000 29 30 1
287.000000 -278.000000 65033.000000 27 33 1
288.000000 -278.000000 65033.000000 32 36 1
289.000000 -278.000000 65032.000000 37 48 4
290.000000 -278.000000 65033.000000 39 56 6
291.000000 -278.000000 65032.000000 41 57 3
292.000000 -278.000000 65032.000000 37 59 1
293.000000 -278.000000 65032.000000 33 67 1
294.000000 -278.000000 65031.000000 40 71 1
295.000000 -278.000000 65031.000000 47 74 1
296.000000 -278.000000 65029.000000 50 77 1
297.000000 -278.000000 65029.000000 53 83 1
298.000000 -278.000000 65028.000000 55 83 1
299.000000 -278.000000 65028.000000 58 83 6
302.000000 -278.000000 65021.000000 62 93 1
303.000000 -278.000000 65021.000000 60 95 1
241.000000 -279.000000 65013.000000 1 5 1
242.000000 -279.000000 65013.000000 3 2 1
243.000000 -279.000000 65013.000000 5 2 11
244.000000 -279.000000 65013.000000 19 29 21
245.000000 -279.000000 65013.000000 34 64 21
246.000000 -279.000000 65013.000000 39 66 21
247.000000 -279.000000 65014.000000 45 67 11
248.000000 -279.000000 65015.000000 42 61 1
249.000000 -279.000000 65018.000000 40 53 1
250.000000 -279.000000 65020.000000 38 53 1
251.000000 -279.000000 65020.000000 35 53 1
252.000000 -279.000000 65023.000000 36 53 1
253.000000 -279.000000 65023.000000 37 54 1
254.000000 -279.000000 65023.000000 35 53 1
256.000000 -279.000000 65031.000000 29 53 1
257.000000 -279.000000 65031.000000 24 54 1
258.000000 -279.000000 65032.000000 24 51 1
259.000000 -279.000000 65032.000000 24 50 1
260.000000 -279.000000 65034.000000 21 49 1
261.000000 -279.000000 65034.000000 19 48 1
262.000000 -279.000000 65035.000000 18 48 2
263.000000 -279.000000 65035.000000 16 48 1
264.000000 -279.000000 65035.000000 19 47 1
265.000000 -279.000000 65035.000000 22 46 1
266.000000 -279.000000 65035.000000 25 46 1
267.000000 -279.000000 65035.000000 29 47 1
268.000000 -279.000000 65035.000000 24 48 1
269.000000 -279.000000 65035.000000 19 44 1
270.000000 -279.000000 65035.000000 16 43 1
271.000000 -279.000000 65034.000000 13 42 4
272.000000 -279.000000 65034.000000 19 45 8
273.000000 -279.000000 65034.000000 26 49 4
274.000000 -279.000000 65034.000000 21 47 1
275.000000 -279.000000 65034.000000 17 44 1
276.000000 -279.000000 65034.000000 14 48 1
277.000000 -279.000000 65034.000000 11 50 1
278.000000 -279.000000 65033.000000 20 53 1
279.000000 -279.000000 65033.000000 30 58 1
280.000000 -279.000000 65033.000000 34 56 1
281.000000 -279.000000 65033.000000 38 53 1
282.000000 -279.000000 65033.000000 40 55 1
283.000000 -279.000000 65033.000000 43 41 1
284.000000 -279.000000 65033.000000 38 33 1
285.000000 -279.000000 65033.000000 33 26 1
286.000000 -279.000000 65033.000000 27 24 1
287.000000 -279.000000 65032.000000 21 23 1
288.000000 -279.000000 65032.000000 32 38 2
289.000000 -279.000000 65032.000000 43 50 3
290.000000 -279.000000 65032.000000 44 57 4
291.000000 -279.000000 65032.000000 45 59 2
292.000000 -279.000000 65032.000000 42 59 1
293.000000 -279.000000 65032.000000 39 68 1
294.000000 -279.000000 65031.000000 42 69 1
295.000000 -279.000000 65031.000000 46 72 1
296.000000 -279.000000 65030.000000 49 79 1
297.000000 -279.000000 65028.000000 53 83 1
298.000000 -279.000000 65028.000000 56 84 1
299.000000 -279.000000 65028.000000 59 88 12
241.000000 -280.000000 65013.000000 1 3 1
242.000000 -280.000000 65013.000000 4 3 1
243.000000 -280.000000 65013.000000 8 3 6
244.000000 -280.000000 65013.000000 22 54 11
245.000000 -280.000000 65013.000000 37 60 11
246.000000 -280.000000 65013.000000 39 66 11
247.000000 -280.000000 65014.000000 41 66 6
248.000000 -280.000000 65015.000000 40 67 2
249.000000 -280.000000 65018.000000 39 58 1
250.000000 -280.000000 65019.000000 34 53 1
251.000000 -280.000000 65020.000000 30 52 1
252.000000 -280.000000 65023.000000 32 51 1
253.000000 -280.000000 65023.000000 34 51 9
254.000000 -280.000000 65029.000000 34 58 17
255.000000 -280.000000 65029.000000 35 53 9
256.000000 -280.000000 65031.000000 32 55 1
257.000000 -280.000000 65031.000000 30 53 7
258.000000 -280.000000 65032.000000 28 49 13
259.000000 -280.000000 65032.000000 27 50 7
260.000000 -280.000000 65034.000000 23 46 1
261.000000 -280.000000 65035.000000 19 47 1
262.000000 -280.000000 65035.000000 19 49 1
263.000000 -280.000000 65035.000000 19 46 1
264.000000 -280.000000 65035.000000 20 43 1
265.000000 -280.000000 65035.000000 21 43 2
266.000000 -280.000000 65035.000000 27 44 4
267.000000 -280.000000 65035.000000 34 46 2
268.000000 -280.000000 65035.000000 26 47 1
269.000000 -280.000000 65035.000000 18 46 1
270.000000 -280.000000 65035.000000 15 45 1
271.000000 -280.000000 65034.000000 13 43 2
272.000000 -280.000000 65035.000000 21 42 4
273.000000 -280.000000 65034.000000 30 45 2
274.000000 -280.000000 65034.000000 22 45 1
275.000000 -280.000000 65034.000000 14 45 1
276.000000 -280.000000 65034.000000 9 46 1
277.000000 -280.000000 65035.000000 4 49 1
278.000000 -280.000000 65035.000000 17 54 1
279.000000 -280.000000 65035.000000 30 54 1
280.000000 -280.000000 65034.000000 34 55 1
281.000000 -280.000000 65034.000000 39 54 1
282.000000 -280.000000 65034.000000 40 58 1
283.000000 -280.000000 65033.000000 42 46 1
284.000000 -280.000000 65033.000000 38 26 1
285.000000 -280.000000 65033.000000 35 26 1
286.000000 -280.000000 65032.000000 25 26 1
287.000000 -280.000000 65032.000000 16 33 2
288.000000 -280.000000 65032.000000 32 41 4
289.000000 -280.000000 65032.000000 49 52 13
290.000000 -280.000000 65032.000000 49 58 21
291.000000 -280.000000 65032.000000 50 59 11
292.000000 -280.000000 65032.000000 47 60 1
293.000000 -280.000000 65032.000000 45 65 1
294.000000 -280.000000 65032.000000 45 68 1
295.000000 -280.000000 65031.000000 46 74 1
296.000000 -280.000000 65029.000000 49 82 1
297.000000 -280.000000 65028.000000 53 83 1
298.000000 -280.000000 65028.000000 57 85 1
299.000000 -280.000000 65028.000000 61 87 7
300.000000 -280.000000 65028.000000 56 91 13
241.000000 -281.000000 65013.000000 2 2 1
242.000000 -281.000000 65013.000000 4 3 1
243.000000 -281.000000 65013.000000 6 4 1
244.000000 -281.000000 65013.000000 17 38 1
245.000000 -281.000000 65013.000000 29 46 1
246.000000 -281.000000 65013.000000 29 53 1
247.000000 -281.000000 65014.000000 30 61 2
248.000000 -281.000000 65018.000000 30 62 3
249.000000 -281.000000 65019.000000 30 63 2
250.000000 -281.000000 65020.000000 26 52 1
251.000000 -281.000000 65023.000000 22 41 1
252.000000 -281.000000 65023.000000 26 45 1
253.000000 -281.000000 65023.000000 30 49 17
254.000000 -281.000000 65026.000000 33 56 34
255.000000 -281.000000 65029.000000 36 54 17
256.000000 -281.000000 65029.000000 32 53 1
257.000000 -281.000000 65030.000000 27 52 13
258.000000 -281.000000 65032.000000 25 50 26
259.000000 -281.000000 65032.000000 23 50 13
260.000000 -281.000000 65032.000000 22 45 1
261.000000 -281.000000 65035.000000 21 42 1
262.000000 -281.000000 65035.000000 17 48 1
263.000000 -281.000000 65035.000000 14 44 1
264.000000 -281.000000 65035.000000 18 42 1
265.000000 -281.000000 65035.000000 22 42 4
266.000000 -281.000000 65035.000000 25 44 8
267.000000 -281.000000 65035.000000 28 46 4
268.000000 -281.000000 65035.000000 24 48 1
269.000000 -281.000000 65035.000000 20 50 1
270.000000 -281.000000 65035.000000 15 47 1
271.000000 -281.000000 65035.000000 11 44 1
272.000000 -281.000000 65035.000000 18 45 1
273.000000 -281.000000 65035.000000 25 46 1
274.000000 -281.000000 65034.000000 21 45 1
275.000000 -281.000000 65034.000000 16 40 1
276.000000 -281.000000 65034.000000 16 44 1
277.000000 -281.000000 65035.000000 15 48 1
278.000000 -281.000000 65035.000000 24 53 1
279.000000 -281.000000 65035.000000 33 54 1
280.000000 -281.000000 65035.000000 37 54 1
281.000000 -281.000000 65035.000000 41 55 1
282.000000 -281.000000 65035.000000 43 56 1
283.000000 -281.000000 65034.000000 44 51 1
284.000000 -281.000000 65034.000000 45 47 1
285.000000 -281.000000 65033.000000 45 43 1
286.000000 -281.000000 65033.000000 38 43 1
287.000000 -281.000000 65033.000000 31 43 4
288.000000 -281.000000 65032.000000 41 48 7
289.000000 -281.000000 65032.000000 51 54 23
290.000000 -281.000000 65032.000000 51 59 39
291.000000 -281.000000 65032.000000 51 61 20
292.000000 -281.000000 65032.000000 49 62 1
293.000000 -281.000000 65032.000000 46 63 1
294.000000 -281.000000 65032.000000 46 66 1
295.000000 -281.000000 65031.000000 46 76 1
296.000000 -281.000000 65029.000000 50 82 1
297.000000 -281.000000 65029.000000 55 84 1
298.000000 -281.000000 65029.000000 61 85 2
299.000000 -281.000000 65028.000000 67 86 2
300.000000 -281.000000 65028.000000 56 84 2
301.000000 -281.000000 65028.000000 45 82 18
242.000000 -282.000000 65013.000000 4 3 9
243.000000 -282.000000 65013.000000 4 7 5
244.000000 -282.000000 65013.000000 12 23 1
245.000000 -282.000000 65013.000000 21 28 1
246.000000 -282.000000 65013.000000 20 34 1
247.000000 -282.000000 65014.000000 19 42 1
248.000000 -282.000000 65017.000000 20 50 2
249.000000 -282.000000 65021.000000 22 38 1
250.000000 -282.000000 65021.000000 18 27 1
251.000000 -282.000000 65023.000000 15 33 1
252.000000 -282.000000 65023.000000 20 39 1
253.000000 -282.000000 65024.000000 26 49 9
254.000000 -282.000000 65028.000000 32 54 18
255.000000 -282.000000 65029.000000 38 50 9
256.000000 -282.000000 65030.000000 31 47 1
257.000000 -282.000000 65030.000000 25 53 7
258.000000 -282.000000 65031.000000 22 51 13
259.000000 -282.000000 65032.000000 20 50 7
260.000000 -282.000000 65032.000000 21 45 1
261.000000 -282.000000 65035.000000 23 46 1
262.000000 -282.000000 65035.000000 16 48 1
263.000000 -282.000000 65034.000000 10 45 1
264.000000 -282.000000 65035.000000 16 41 1
265.000000 -282.000000 65035.000000 23 44 2
266.000000 -282.000000 65035.000000 22 51 4
267.000000 -282.000000 65035.000000 22 48 2
268.000000 -282.000000 65035.000000 22 50 1
269.000000 -282.000000 65035.000000 23 50 1
270.000000 -282.000000 65035.000000 16 49 1
271.000000 -282.000000 65035.000000 9 49 1
272.000000 -282.000000 65035.000000 15 49 1
273.000000 -282.000000 65035.000000 21 46 1
274.000000 -282.000000 65034.000000 20 45 1
275.000000 -282.000000 65034.000000 19 39 1
276.000000 -282.000000 65034.000000 23 43 1
277.000000 -282.000000 65034.000000 27 48 1
278.000000 -282.000000 65034.000000 32 52 1
279.000000 -282.000000 65034.000000 37 55 1
280.000000 -282.000000 65035.000000 40 57 1
281.000000 -282.000000 65035.000000 44 56 1
282.000000 -282.000000 65035.000000 45 55 1
283.000000 -282.000000 65035.000000 47 55 7
284.000000 -282.000000 65034.000000 51 55 13
285.000000 -282.000000 65034.000000 56 52 7
286.000000 -282.000000 65033.000000 51 50 1
287.000000 -282.000000 65033.000000 47 51 2
288.000000 -282.000000 65032.000000 50 53 4
289.000000 -282.000000 65033.000000 54 56 12
