ply
    format ascii 1.0
    element vertex 10427
    property float x
    property float y
    property float z
    property uchar red
    property uchar green
    property uchar blue
    end_header
287.000000 -253.000000 65029.000000 71 63 8
288.000000 -253.000000 65029.000000 74 69 2
289.000000 -253.000000 65029.000000 78 69 1
290.000000 -253.000000 65028.000000 69 70 1
291.000000 -253.000000 65028.000000 60 71 1
292.000000 -253.000000 65028.000000 53 73 1
293.000000 -253.000000 65028.000000 46 67 1
294.000000 -253.000000 65027.000000 38 67 1
295.000000 -253.000000 65027.000000 30 67 1
296.000000 -253.000000 65028.000000 24 53 2
297.000000 -253.000000 65027.000000 17 39 1
298.000000 -253.000000 65026.000000 11 15 1
299.000000 -253.000000 65026.000000 5 12 3
300.000000 -253.000000 65025.000000 6 10 6
301.000000 -253.000000 65025.000000 6 9 3
302.000000 -253.000000 65025.000000 33 47 1
303.000000 -253.000000 65025.000000 61 91 2
304.000000 -253.000000 65025.000000 68 97 3
305.000000 -253.000000 65024.000000 76 104 2
306.000000 -253.000000 65024.000000 79 95 2
247.000000 -254.000000 65005.000000 11 4 1
248.000000 -254.000000 65006.000000 22 4 1
249.000000 -254.000000 65007.000000 33 7 1
250.000000 -254.000000 65007.000000 46 12 1
251.000000 -254.000000 65013.000000 60 20 1
252.000000 -254.000000 65013.000000 60 28 1
253.000000 -254.000000 65016.000000 60 33 1
254.000000 -254.000000 65017.000000 53 39 1
255.000000 -254.000000 65017.000000 47 43 1
256.000000 -254.000000 65019.000000 38 48 1
257.000000 -254.000000 65020.000000 30 48 1
258.000000 -254.000000 65021.000000 25 49 1
259.000000 -254.000000 65023.000000 20 49 1
260.000000 -254.000000 65024.000000 20 50 2
261.000000 -254.000000 65025.000000 21 50 1
262.000000 -254.000000 65026.000000 21 46 1
263.000000 -254.000000 65029.000000 22 46 1
264.000000 -254.000000 65030.000000 21 36 1
265.000000 -254.000000 65031.000000 20 41 1
266.000000 -254.000000 65031.000000 12 26 1
267.000000 -254.000000 65032.000000 5 40 1
268.000000 -254.000000 65032.000000 13 30 1
269.000000 -254.000000 65032.000000 21 30 1
270.000000 -254.000000 65031.000000 26 31 1
271.000000 -254.000000 65031.000000 31 48 1
272.000000 -254.000000 65030.000000 36 52 1
273.000000 -254.000000 65031.000000 41 61 7
274.000000 -254.000000 65030.000000 43 56 13
275.000000 -254.000000 65031.000000 46 59 7
276.000000 -254.000000 65032.000000 47 63 1
277.000000 -254.000000 65032.000000 48 62 1
278.000000 -254.000000 65032.000000 46 62 1
279.000000 -254.000000 65032.000000 44 61 1
280.000000 -254.000000 65032.000000 47 61 1
281.000000 -254.000000 65031.000000 50 60 1
282.000000 -254.000000 65030.000000 54 64 1
283.000000 -254.000000 65030.000000 58 64 6
284.000000 -254.000000 65030.000000 49 58 11
285.000000 -254.000000 65029.000000 41 54 9
286.000000 -254.000000 65029.000000 56 62 8
287.000000 -254.000000 65029.000000 71 65 13
288.000000 -254.000000 65029.000000 72 75 18
289.000000 -254.000000 65029.000000 74 69 9
290.000000 -254.000000 65028.000000 66 68 1
291.000000 -254.000000 65028.000000 58 71 8
292.000000 -254.000000 65028.000000 49 74 15
293.000000 -254.000000 65028.000000 41 64 8
294.000000 -254.000000 65028.000000 29 33 2
295.000000 -254.000000 65028.000000 18 27 1
296.000000 -254.000000 65028.000000 13 21 1
297.000000 -254.000000 65028.000000 9 15 1
298.000000 -254.000000 65026.000000 5 10 1
299.000000 -254.000000 65026.000000 1 12 2
300.000000 -254.000000 65025.000000 1 15 3
301.000000 -254.000000 65025.000000 2 8 5
302.000000 -254.000000 65025.000000 16 12 7
303.000000 -254.000000 65025.000000 31 51 4
304.000000 -254.000000 65025.000000 51 86 2
305.000000 -254.000000 65024.000000 71 90 2
306.000000 -254.000000 65024.000000 80 95 2
247.000000 -255.000000 65005.000000 9 3 1
248.000000 -255.000000 65005.000000 20 6 1
249.000000 -255.000000 65007.000000 31 10 1
250.000000 -255.000000 65007.000000 43 25 1
251.000000 -255.000000 65013.000000 55 41 1
252.000000 -255.000000 65013.000000 55 42 1
253.000000 -255.000000 65013.000000 55 43 1
254.000000 -255.000000 65017.000000 49 46 1
255.000000 -255.000000 65017.000000 43 49 1
256.000000 -255.000000 65018.000000 34 48 1
257.000000 -255.000000 65020.000000 25 49 1
258.000000 -255.000000 65022.000000 23 50 1
259.000000 -255.000000 65023.000000 21 51 2
260.000000 -255.000000 65025.000000 18 50 4
261.000000 -255.000000 65026.000000 16 49 2
262.000000 -255.000000 65026.000000 20 48 1
263.000000 -255.000000 65029.000000 24 48 1
264.000000 -255.000000 65030.000000 27 42 1
265.000000 -255.000000 65031.000000 30 37 1
266.000000 -255.000000 65032.000000 23 39 1
267.000000 -255.000000 65032.000000 17 42 1
268.000000 -255.000000 65032.000000 22 41 1
269.000000 -255.000000 65032.000000 27 41 1
270.000000 -255.000000 65032.000000 31 45 1
271.000000 -255.000000 65032.000000 34 50 1
272.000000 -255.000000 65031.000000 37 57 1
273.000000 -255.000000 65031.000000 39 63 13
274.000000 -255.000000 65031.000000 41 60 25
275.000000 -255.000000 65031.000000 43 58 13
276.000000 -255.000000 65031.000000 45 58 1
277.000000 -255.000000 65032.000000 46 59 1
278.000000 -255.000000 65032.000000 45 63 1
279.000000 -255.000000 65032.000000 45 65 1
280.000000 -255.000000 65032.000000 47 63 1
281.000000 -255.000000 65031.000000 50 61 1
282.000000 -255.000000 65030.000000 56 65 1
283.000000 -255.000000 65030.000000 62 64 2
284.000000 -255.000000 65030.000000 55 58 3
285.000000 -255.000000 65029.000000 48 54 2
286.000000 -255.000000 65029.000000 57 59 2
287.000000 -255.000000 65029.000000 67 67 18
288.000000 -255.000000 65029.000000 68 68 34
289.000000 -255.000000 65029.000000 70 69 17
290.000000 -255.000000 65028.000000 63 70 1
291.000000 -255.000000 65028.000000 56 72 15
292.000000 -255.000000 65028.000000 43 67 30
293.000000 -255.000000 65028.000000 30 62 16
294.000000 -255.000000 65028.000000 20 19 3
295.000000 -255.000000 65028.000000 11 9 2
296.000000 -255.000000 65028.000000 8 9 1
297.000000 -255.000000 65028.000000 6 9 1
298.000000 -255.000000 65026.000000 3 10 1
299.000000 -255.000000 65026.000000 1 20 1
300.000000 -255.000000 65026.000000 2 11 1
301.000000 -255.000000 65026.000000 4 8 7
302.000000 -255.000000 65025.000000 15 9 13
303.000000 -255.000000 65026.000000 27 17 7
304.000000 -255.000000 65025.000000 46 64 1
305.000000 -255.000000 65025.000000 65 94 2
306.000000 -255.000000 65024.000000 74 97 3
247.000000 -256.000000 65005.000000 7 3 1
248.000000 -256.000000 65005.000000 18 9 1
249.000000 -256.000000 65007.000000 30 19 1
250.000000 -256.000000 65007.000000 40 56 1
251.000000 -256.000000 65013.000000 51 52 1
252.000000 -256.000000 65013.000000 50 48 1
253.000000 -256.000000 65016.000000 50 48 1
254.000000 -256.000000 65017.000000 44 49 1
255.000000 -256.000000 65017.000000 39 48 1
256.000000 -256.000000 65018.000000 29 48 1
257.000000 -256.000000 65020.000000 20 50 1
258.000000 -256.000000 65023.000000 21 52 1
259.000000 -256.000000 65024.000000 22 51 1
260.000000 -256.000000 65025.000000 17 51 2
261.000000 -256.000000 65026.000000 12 50 1
262.000000 -256.000000 65026.000000 19 50 1
263.000000 -256.000000 65029.000000 26 50 1
264.000000 -256.000000 65030.000000 33 53 1
265.000000 -256.000000 65031.000000 40 52 1
266.000000 -256.000000 65032.000000 34 51 1
267.000000 -256.000000 65032.000000 29 46 1
268.000000 -256.000000 65032.000000 31 44 1
269.000000 -256.000000 65032.000000 34 48 1
270.000000 -256.000000 65032.000000 36 52 1
271.000000 -256.000000 65032.000000 38 57 1
272.000000 -256.000000 65032.000000 38 63 1
273.000000 -256.000000 65032.000000 38 63 7
274.000000 -256.000000 65032.000000 39 63 13
275.000000 -256.000000 65032.000000 41 62 7
276.000000 -256.000000 65032.000000 43 61 1
277.000000 -256.000000 65032.000000 45 59 1
278.000000 -256.000000 65032.000000 45 64 1
279.000000 -256.000000 65032.000000 46 65 1
280.000000 -256.000000 65032.000000 48 67 1
281.000000 -256.000000 65032.000000 50 66 1
282.000000 -256.000000 65030.000000 58 66 1
283.000000 -256.000000 65030.000000 66 62 2
284.000000 -256.000000 65030.000000 60 59 3
285.000000 -256.000000 65030.000000 55 55 2
286.000000 -256.000000 65029.000000 59 56 2
287.000000 -256.000000 65029.000000 64 59 9
288.000000 -256.000000 65029.000000 65 62 17
289.000000 -256.000000 65029.000000 66 71 9
290.000000 -256.000000 65029.000000 60 73 1
291.000000 -256.000000 65029.000000 54 74 10
292.000000 -256.000000 65029.000000 37 46 19
293.000000 -256.000000 65029.000000 20 25 10
294.000000 -256.000000 65029.000000 12 5 2
295.000000 -256.000000 65029.000000 4 5 1
296.000000 -256.000000 65029.000000 3 5 1
297.000000 -256.000000 65028.000000 3 7 1
298.000000 -256.000000 65027.000000 2 10 1
299.000000 -256.000000 65027.000000 1 8 1
300.000000 -256.000000 65027.000000 3 7 1
301.000000 -256.000000 65026.000000 6 7 4
302.000000 -256.000000 65026.000000 14 7 7
303.000000 -256.000000 65026.000000 23 10 9
304.000000 -256.000000 65026.000000 41 43 11
305.000000 -256.000000 65026.000000 59 76 7
248.000000 -257.000000 65006.000000 17 13 1
249.000000 -257.000000 65007.000000 31 29 1
250.000000 -257.000000 65007.000000 47 60 2
251.000000 -257.000000 65009.000000 63 67 1
252.000000 -257.000000 65017.000000 57 61 1
253.000000 -257.000000 65017.000000 52 56 1
254.000000 -257.000000 65017.000000 47 55 1
255.000000 -257.000000 65017.000000 42 54 1
256.000000 -257.000000 65017.000000 33 53 1
257.000000 -257.000000 65021.000000 25 53 1
258.000000 -257.000000 65023.000000 24 50 1
259.000000 -257.000000 65025.000000 24 47 1
260.000000 -257.000000 65026.000000 19 47 1
261.000000 -257.000000 65026.000000 14 47 1
262.000000 -257.000000 65027.000000 18 49 1
263.000000 -257.000000 65029.000000 22 51 1
264.000000 -257.000000 65029.000000 22 52 1
265.000000 -257.000000 65031.000000 22 53 1
266.000000 -257.000000 65032.000000 25 51 1
267.000000 -257.000000 65032.000000 27 49 1
268.000000 -257.000000 65032.000000 30 51 1
269.000000 -257.000000 65032.000000 33 53 1
270.000000 -257.000000 65032.000000 35 55 1
271.000000 -257.000000 65032.000000 38 64 1
272.000000 -257.000000 65032.000000 37 63 1
273.000000 -257.000000 65032.000000 36 62 1
274.000000 -257.000000 65032.000000 38 62 1
275.000000 -257.000000 65032.000000 40 63 1
276.000000 -257.000000 65031.000000 43 61 1
277.000000 -257.000000 65031.000000 46 60 1
278.000000 -257.000000 65031.000000 44 62 1
279.000000 -257.000000 65032.000000 43 65 1
280.000000 -257.000000 65032.000000 46 65 1
281.000000 -257.000000 65031.000000 49 65 1
282.000000 -257.000000 65029.000000 55 65 1
283.000000 -257.000000 65030.000000 62 60 2
284.000000 -257.000000 65030.000000 58 59 4
285.000000 -257.000000 65029.000000 55 51 3
286.000000 -257.000000 65029.000000 56 56 2
287.000000 -257.000000 65029.000000 58 53 1
288.000000 -257.000000 65029.000000 62 64 1
289.000000 -257.000000 65029.000000 66 73 1
290.000000 -257.000000 65029.000000 59 75 1
291.000000 -257.000000 65029.000000 52 77 4
292.000000 -257.000000 65028.000000 35 40 8
293.000000 -257.000000 65029.000000 18 11 4
294.000000 -257.000000 65029.000000 10 3 1
295.000000 -257.000000 65029.000000 2 3 1
296.000000 -257.000000 65029.000000 2 4 1
297.000000 -257.000000 65028.000000 2 5 1
298.000000 -257.000000 65027.000000 2 6 1
299.000000 -257.000000 65027.000000 1 7 1
300.000000 -257.000000 65026.000000 2 7 1
301.000000 -257.000000 65026.000000 4 6 1
302.000000 -257.000000 65026.000000 9 5 2
303.000000 -257.000000 65026.000000 15 4 12
304.000000 -257.000000 65026.000000 33 26 22
305.000000 -257.000000 65026.000000 50 58 12
248.000000 -258.000000 65007.000000 16 18 2
249.000000 -258.000000 65007.000000 32 27 2
250.000000 -258.000000 65008.000000 54 64 2
251.000000 -258.000000 65008.000000 76 63 5
252.000000 -258.000000 65008.000000 65 63 8
253.000000 -258.000000 65017.000000 54 55 4
254.000000 -258.000000 65017.000000 50 55 1
255.000000 -258.000000 65018.000000 46 54 1
256.000000 -258.000000 65019.000000 38 54 1
257.000000 -258.000000 65021.000000 30 51 1
258.000000 -258.000000 65023.000000 28 49 1
259.000000 -258.000000 65025.000000 26 47 1
260.000000 -258.000000 65026.000000 21 46 1
261.000000 -258.000000 65026.000000 17 44 1
262.000000 -258.000000 65027.000000 17 40 1
263.000000 -258.000000 65029.000000 18 45 1
264.000000 -258.000000 65030.000000 11 46 1
265.000000 -258.000000 65031.000000 5 45 6
266.000000 -258.000000 65032.000000 15 44 12
267.000000 -258.000000 65032.000000 26 48 6
268.000000 -258.000000 65032.000000 29 51 1
269.000000 -258.000000 65032.000000 32 56 1
270.000000 -258.000000 65032.000000 35 59 1
271.000000 -258.000000 65032.000000 39 61 1
272.000000 -258.000000 65032.000000 36 63 1
273.000000 -258.000000 65032.000000 34 64 1
274.000000 -258.000000 65032.000000 36 66 2
275.000000 -258.000000 65032.000000 39 63 1
276.000000 -258.000000 65031.000000 43 61 1
277.000000 -258.000000 65031.000000 47 60 1
278.000000 -258.000000 65031.000000 44 59 1
279.000000 -258.000000 65031.000000 41 63 1
280.000000 -258.000000 65031.000000 44 63 1
281.000000 -258.000000 65031.000000 48 63 1
282.000000 -258.000000 65030.000000 53 64 1
283.000000 -258.000000 65030.000000 58 62 3
284.000000 -258.000000 65031.000000 56 60 5
285.000000 -258.000000 65029.000000 55 58 3
286.000000 -258.000000 65029.000000 54 56 1
287.000000 -258.000000 65029.000000 53 57 1
288.000000 -258.000000 65029.000000 59 67 1
289.000000 -258.000000 65029.000000 66 73 1
290.000000 -258.000000 65029.000000 58 79 1
291.000000 -258.000000 65029.000000 50 76 9
292.000000 -258.000000 65029.000000 33 35 17
293.000000 -258.000000 65029.000000 17 26 9
294.000000 -258.000000 65029.000000 9 2 1
295.000000 -258.000000 65029.000000 1 3 1
296.000000 -258.000000 65029.000000 1 4 1
297.000000 -258.000000 65028.000000 2 5 1
298.000000 -258.000000 65028.000000 2 6 1
299.000000 -258.000000 65028.000000 2 6 1
300.000000 -258.000000 65027.000000 2 8 1
301.000000 -258.000000 65026.000000 2 6 1
302.000000 -258.000000 65026.000000 5 5 1
303.000000 -258.000000 65026.000000 8 3 6
304.000000 -258.000000 65026.000000 25 9 11
248.000000 -259.000000 65007.000000 15 13 4
249.000000 -259.000000 65007.000000 28 26 3
250.000000 -259.000000 65008.000000 45 51 2
251.000000 -259.000000 65008.000000 62 60 8
252.000000 -259.000000 65008.000000 55 57 15
253.000000 -259.000000 65017.000000 49 54 8
254.000000 -259.000000 65017.000000 45 53 2
255.000000 -259.000000 65018.000000 42 53 1
256.000000 -259.000000 65019.000000 35 49 1
257.000000 -259.000000 65021.000000 28 46 1
258.000000 -259.000000 65024.000000 25 47 1
259.000000 -259.000000 65025.000000 22 48 1
260.000000 -259.000000 65026.000000 20 44 1
261.000000 -259.000000 65026.000000 19 42 1
262.000000 -259.000000 65027.000000 19 43 1
263.000000 -259.000000 65030.000000 19 45 1
264.000000 -259.000000 65032.000000 17 45 1
265.000000 -259.000000 65032.000000 15 45 12
266.000000 -259.000000 65032.000000 22 46 24
267.000000 -259.000000 65032.000000 29 48 12
268.000000 -259.000000 65032.000000 32 50 1
269.000000 -259.000000 65032.000000 35 59 1
270.000000 -259.000000 65032.000000 36 58 1
271.000000 -259.000000 65032.000000 37 57 1
272.000000 -259.000000 65032.000000 36 62 1
273.000000 -259.000000 65032.000000 36 66 2
274.000000 -259.000000 65032.000000 38 66 4
275.000000 -259.000000 65032.000000 40 69 2
276.000000 -259.000000 65031.000000 42 61 1
277.000000 -259.000000 65031.000000 44 63 1
278.000000 -259.000000 65031.000000 38 62 1
279.000000 -259.000000 65031.000000 33 62 1
280.000000 -259.000000 65032.000000 40 61 1
281.000000 -259.000000 65031.000000 48 61 1
282.000000 -259.000000 65031.000000 56 63 1
283.000000 -259.000000 65030.000000 65 67 3
284.000000 -259.000000 65031.000000 60 66 6
285.000000 -259.000000 65030.000000 55 65 3
286.000000 -259.000000 65029.000000 53 63 1
287.000000 -259.000000 65029.000000 52 62 1
288.000000 -259.000000 65029.000000 61 64 2
289.000000 -259.000000 65029.000000 71 73 1
290.000000 -259.000000 65029.000000 62 74 1
291.000000 -259.000000 65029.000000 52 76 14
292.000000 -259.000000 65029.000000 40 49 27
293.000000 -259.000000 65029.000000 28 41 14
294.000000 -259.000000 65029.000000 16 10 1
295.000000 -259.000000 65029.000000 4 7 1
296.000000 -259.000000 65029.000000 3 5 1
297.000000 -259.000000 65029.000000 3 12 1
298.000000 -259.000000 65028.000000 2 4 1
299.000000 -259.000000 65028.000000 1 6 1
300.000000 -259.000000 65028.000000 1 6 1
301.000000 -259.000000 65027.000000 1 6 1
302.000000 -259.000000 65026.000000 4 4 1
303.000000 -259.000000 65027.000000 7 3 1
304.000000 -259.000000 65027.000000 26 13 1
249.000000 -260.000000 65008.000000 25 28 2
250.000000 -260.000000 65008.000000 37 38 1
251.000000 -260.000000 65009.000000 49 41 4
252.000000 -260.000000 65009.000000 46 44 8
254.000000 -260.000000 65017.000000 41 52 1
255.000000 -260.000000 65018.000000 38 51 1
256.000000 -260.000000 65019.000000 32 44 1
257.000000 -260.000000 65023.000000 26 46 1
258.000000 -260.000000 65023.000000 22 46 1
259.000000 -260.000000 65025.000000 19 44 2
260.000000 -260.000000 65026.000000 20 42 4
261.000000 -260.000000 65026.000000 21 43 2
262.000000 -260.000000 65027.000000 21 45 1
263.000000 -260.000000 65031.000000 21 45 1
264.000000 -260.000000 65032.000000 23 46 1
265.000000 -260.000000 65032.000000 26 47 6
266.000000 -260.000000 65032.000000 29 49 12
267.000000 -260.000000 65032.000000 33 49 6
268.000000 -260.000000 65032.000000 35 50 1
269.000000 -260.000000 65032.000000 38 57 1
270.000000 -260.000000 65032.000000 36 56 1
271.000000 -260.000000 65032.000000 35 58 1
272.000000 -260.000000 65032.000000 37 62 1
273.000000 -260.000000 65032.000000 39 62 1
274.000000 -260.000000 65032.000000 40 63 2
275.000000 -260.000000 65032.000000 41 62 1
276.000000 -260.000000 65032.000000 41 61 1
277.000000 -260.000000 65031.000000 41 62 1
278.000000 -260.000000 65031.000000 33 63 1
279.000000 -260.000000 65031.000000 25 62 1
280.000000 -260.000000 65031.000000 36 60 1
281.000000 -260.000000 65032.000000 48 61 1
282.000000 -260.000000 65031.000000 60 62 1
283.000000 -260.000000 65030.000000 72 63 2
284.000000 -260.000000 65030.000000 63 64 3
285.000000 -260.000000 65030.000000 55 60 3
286.000000 -260.000000 65030.000000 53 30 2
287.000000 -260.000000 65029.000000 51 47 2
288.000000 -260.000000 65029.000000 64 61 2
289.000000 -260.000000 65029.000000 77 68 7
290.000000 -260.000000 65029.000000 66 73 12
291.000000 -260.000000 65029.000000 55 71 13
292.000000 -260.000000 65029.000000 47 63 14
293.000000 -260.000000 65029.000000 40 55 7
294.000000 -260.000000 65029.000000 23 19 1
295.000000 -260.000000 65029.000000 7 13 2
296.000000 -260.000000 65029.000000 6 7 3
297.000000 -260.000000 65029.000000 5 5 2
298.000000 -260.000000 65029.000000 3 3 1
299.000000 -260.000000 65028.000000 1 2 1
300.000000 -260.000000 65028.000000 1 1 1
301.000000 -260.000000 65028.000000 1 1 1
302.000000 -260.000000 65027.000000 4 2 1
303.000000 -260.000000 65028.000000 7 2 8
304.000000 -260.000000 65028.000000 28 17 16
305.000000 -260.000000 65028.000000 49 59 15
249.000000 -261.000000 65008.000000 32 30 1
250.000000 -261.000000 65008.000000 42 40 1
251.000000 -261.000000 65009.000000 53 51 1
252.000000 -261.000000 65009.000000 51 50 1
254.000000 -261.000000 65017.000000 44 50 1
255.000000 -261.000000 65023.000000 38 50 1
256.000000 -261.000000 65023.000000 31 48 1
257.000000 -261.000000 65023.000000 25 46 1
258.000000 -261.000000 65023.000000 21 44 1
259.000000 -261.000000 65025.000000 18 43 4
260.000000 -261.000000 65026.000000 17 41 8
261.000000 -261.000000 65026.000000 17 45 4
262.000000 -261.000000 65031.000000 16 46 1
263.000000 -261.000000 65031.000000 16 48 1
264.000000 -261.000000 65032.000000 21 49 1
265.000000 -261.000000 65032.000000 26 51 1
266.000000 -261.000000 65032.000000 30 52 1
267.000000 -261.000000 65032.000000 33 53 1
268.000000 -261.000000 65032.000000 35 54 1
269.000000 -261.000000 65032.000000 37 55 1
270.000000 -261.000000 65032.000000 36 57 1
271.000000 -261.000000 65032.000000 36 59 1
272.000000 -261.000000 65032.000000 37 63 1
273.000000 -261.000000 65032.000000 39 64 1
274.000000 -261.000000 65032.000000 41 63 1
275.000000 -261.000000 65032.000000 44 60 1
276.000000 -261.000000 65032.000000 43 61 1
277.000000 -261.000000 65031.000000 42 62 1
278.000000 -261.000000 65032.000000 37 62 1
279.000000 -261.000000 65031.000000 33 62 1
280.000000 -261.000000 65032.000000 41 63 1
281.000000 -261.000000 65031.000000 49 64 1
282.000000 -261.000000 65031.000000 57 63 1
283.000000 -261.000000 65030.000000 65 62 1
284.000000 -261.000000 65031.000000 60 64 1
285.000000 -261.000000 65030.000000 55 55 2
286.000000 -261.000000 65030.000000 51 38 4
287.000000 -261.000000 65030.000000 46 33 3
288.000000 -261.000000 65030.000000 58 57 2
289.000000 -261.000000 65030.000000 70 63 13
290.000000 -261.000000 65029.000000 64 73 24
291.000000 -261.000000 65029.000000 59 67 12
292.000000 -261.000000 65029.000000 53 68 1
293.000000 -261.000000 65029.000000 47 70 1
294.000000 -261.000000 65029.000000 35 47 2
295.000000 -261.000000 65029.000000 23 24 3
296.000000 -261.000000 65029.000000 22 22 5
297.000000 -261.000000 65029.000000 22 20 3
298.000000 -261.000000 65029.000000 15 11 1
299.000000 -261.000000 65029.000000 9 2 1
300.000000 -261.000000 65028.000000 7 1 1
301.000000 -261.000000 65028.000000 5 3 1
302.000000 -261.000000 65027.000000 16 2 1
303.000000 -261.000000 65028.000000 28 2 16
304.000000 -261.000000 65028.000000 41 51 32
305.000000 -261.000000 65028.000000 54 72 17
254.000000 -262.000000 65017.000000 47 57 1
255.000000 -262.000000 65023.000000 38 54 1
256.000000 -262.000000 65023.000000 31 52 1
257.000000 -262.000000 65023.000000 25 46 1
258.000000 -262.000000 65023.000000 21 41 1
259.000000 -262.000000 65023.000000 17 41 2
260.000000 -262.000000 65023.000000 15 41 4
261.000000 -262.000000 65030.000000 13 38 2
262.000000 -262.000000 65031.000000 12 36 1
263.000000 -262.000000 65032.000000 12 47 1
264.000000 -262.000000 65032.000000 19 54 1
265.000000 -262.000000 65032.000000 27 52 1
266.000000 -262.000000 65033.000000 30 54 1
267.000000 -262.000000 65033.000000 34 54 1
268.000000 -262.000000 65032.000000 35 55 1
269.000000 -262.000000 65032.000000 36 57 1
270.000000 -262.000000 65032.000000 37 63 1
271.000000 -262.000000 65032.000000 38 63 1
272.000000 -262.000000 65032.000000 38 64 1
273.000000 -262.000000 65032.000000 39 63 1
274.000000 -262.000000 65032.000000 43 63 1
275.000000 -262.000000 65032.000000 48 62 1
276.000000 -262.000000 65032.000000 45 62 1
277.000000 -262.000000 65031.000000 43 62 1
278.000000 -262.000000 65032.000000 42 67 1
279.000000 -262.000000 65031.000000 42 66 1
280.000000 -262.000000 65032.000000 46 65 1
281.000000 -262.000000 65031.000000 50 64 1
282.000000 -262.000000 65032.000000 54 66 1
283.000000 -262.000000 65031.000000 59 62 1
284.000000 -262.000000 65031.000000 57 64 1
285.000000 -262.000000 65031.000000 56 55 1
286.000000 -262.000000 65031.000000 49 47 2
287.000000 -262.000000 65031.000000 42 50 2
288.000000 -262.000000 65030.000000 52 54 1
289.000000 -262.000000 65030.000000 63 68 7
290.000000 -262.000000 65029.000000 63 74 12
291.000000 -262.000000 65029.000000 63 70 6
292.000000 -262.000000 65029.000000 58 68 1
293.000000 -262.000000 65029.000000 54 69 1
294.000000 -262.000000 65029.000000 46 71 1
295.000000 -262.000000 65029.000000 39 70 2
296.000000 -262.000000 65029.000000 39 70 3
297.000000 -262.000000 65029.000000 39 64 2
298.000000 -262.000000 65029.000000 28 59 2
299.000000 -262.000000 65029.000000 18 29 3
300.000000 -262.000000 65028.000000 13 1 5
301.000000 -262.000000 65027.000000 9 2 4
302.000000 -262.000000 65026.000000 29 47 2
303.000000 -262.000000 65027.000000 49 66 10
304.000000 -262.000000 65027.000000 54 86 19
305.000000 -262.000000 65027.000000 60 88 10
256.000000 -263.000000 65023.000000 31 52 1
257.000000 -263.000000 65023.000000 23 47 1
258.000000 -263.000000 65023.000000 23 42 1
259.000000 -263.000000 65023.000000 24 38 1
260.000000 -263.000000 65023.000000 21 36 1
261.000000 -263.000000 65030.000000 18 35 1
262.000000 -263.000000 65031.000000 17 41 1
263.000000 -263.000000 65032.000000 16 46 1
264.000000 -263.000000 65032.000000 20 48 1
265.000000 -263.000000 65032.000000 25 51 1
266.000000 -263.000000 65033.000000 28 50 1
267.000000 -263.000000 65032.000000 31 50 1
268.000000 -263.000000 65032.000000 32 53 1
269.000000 -263.000000 65032.000000 33 59 1
270.000000 -263.000000 65032.000000 35 61 1
271.000000 -263.000000 65032.000000 38 63 1
272.000000 -263.000000 65032.000000 39 63 1
273.000000 -263.000000 65032.000000 40 59 1
274.000000 -263.000000 65032.000000 44 62 1
275.000000 -263.000000 65032.000000 49 63 1
276.000000 -263.000000 65032.000000 45 63 1
277.000000 -263.000000 65031.000000 42 63 1
278.000000 -263.000000 65031.000000 39 64 1
279.000000 -263.000000 65031.000000 37 66 1
280.000000 -263.000000 65032.000000 43 64 1
281.000000 -263.000000 65032.000000 50 64 1
282.000000 -263.000000 65032.000000 54 63 1
283.000000 -263.000000 65031.000000 58 63 1
284.000000 -263.000000 65031.000000 57 63 1
285.000000 -263.000000 65031.000000 56 56 1
286.000000 -263.000000 65031.000000 51 57 1
287.000000 -263.000000 65031.000000 47 58 1
288.000000 -263.000000 65030.000000 54 61 1
289.000000 -263.000000 65030.000000 61 74 1
290.000000 -263.000000 65029.000000 60 73 1
291.000000 -263.000000 65029.000000 60 73 1
292.000000 -263.000000 65029.000000 55 68 1
293.000000 -263.000000 65029.000000 50 63 1
294.000000 -263.000000 65029.000000 42 69 1
295.000000 -263.000000 65029.000000 34 69 1
296.000000 -263.000000 65029.000000 39 71 1
297.000000 -263.000000 65029.000000 44 74 2
298.000000 -263.000000 65029.000000 36 66 3
299.000000 -263.000000 65029.000000 29 57 6
300.000000 -263.000000 65028.000000 22 9 10
301.000000 -263.000000 65027.000000 15 1 7
302.000000 -263.000000 65026.000000 43 73 4
303.000000 -263.000000 65027.000000 72 94 5
304.000000 -263.000000 65027.000000 65 85 6
305.000000 -263.000000 65027.000000 58 87 3
251.000000 -264.000000 65011.000000 54 65 12
252.000000 -264.000000 65011.000000 64 71 24
254.000000 -264.000000 65017.000000 58 66 1
255.000000 -264.000000 65017.000000 42 57 1
256.000000 -264.000000 65023.000000 32 53 1
257.000000 -264.000000 65023.000000 22 46 1
258.000000 -264.000000 65023.000000 26 51 1
259.000000 -264.000000 65023.000000 31 48 1
260.000000 -264.000000 65023.000000 27 46 1
261.000000 -264.000000 65023.000000 23 46 5
262.000000 -264.000000 65031.000000 21 46 9
263.000000 -264.000000 65032.000000 20 46 5
264.000000 -264.000000 65032.000000 22 48 1
265.000000 -264.000000 65032.000000 24 47 1
266.000000 -264.000000 65033.000000 26 46 1
267.000000 -264.000000 65033.000000 29 48 1
268.000000 -264.000000 65032.000000 29 51 1
269.000000 -264.000000 65032.000000 30 54 1
270.000000 -264.000000 65032.000000 34 58 1
271.000000 -264.000000 65032.000000 39 63 1
272.000000 -264.000000 65032.000000 40 63 1
273.000000 -264.000000 65032.000000 42 62 1
274.000000 -264.000000 65032.000000 46 62 1
275.000000 -264.000000 65032.000000 50 62 1
276.000000 -264.000000 65032.000000 46 64 1
277.000000 -264.000000 65032.000000 42 63 1
278.000000 -264.000000 65032.000000 37 63 1
279.000000 -264.000000 65032.000000 32 65 1
280.000000 -264.000000 65032.000000 41 64 1
281.000000 -264.000000 65032.000000 50 66 1
282.000000 -264.000000 65032.000000 54 68 1
283.000000 -264.000000 65032.000000 58 63 5
284.000000 -264.000000 65032.000000 57 62 9
285.000000 -264.000000 65032.000000 57 55 5
286.000000 -264.000000 65032.000000 54 53 2
287.000000 -264.000000 65031.000000 52 59 10
288.000000 -264.000000 65031.000000 56 68 17
289.000000 -264.000000 65031.000000 60 72 9
290.000000 -264.000000 65030.000000 58 76 1
291.000000 -264.000000 65029.000000 57 71 1
292.000000 -264.000000 65029.000000 52 69 1
293.000000 -264.000000 65029.000000 47 68 1
294.000000 -264.000000 65029.000000 38 67 1
295.000000 -264.000000 65029.000000 29 70 1
296.000000 -264.000000 65029.000000 39 73 2
297.000000 -264.000000 65029.000000 49 73 2
298.000000 -264.000000 65029.000000 45 74 2
299.000000 -264.000000 65028.000000 41 62 5
300.000000 -264.000000 65028.000000 31 17 7
301.000000 -264.000000 65027.000000 21 28 8
302.000000 -264.000000 65026.000000 58 100 9
303.000000 -264.000000 65027.000000 96 100 7
304.000000 -264.000000 65027.000000 76 84 4
305.000000 -264.000000 65027.000000 57 80 2
250.000000 -265.000000 65013.000000 44 67 2
251.000000 -265.000000 65013.000000 55 60 1
252.000000 -265.000000 65014.000000 59 68 1
253.000000 -265.000000 65015.000000 62 75 1
254.000000 -265.000000 65017.000000 49 62 1
255.000000 -265.000000 65019.000000 36 55 1
256.000000 -265.000000 65023.000000 26 52 1
257.000000 -265.000000 65023.000000 17 46 1
258.000000 -265.000000 65023.000000 21 48 1
259.000000 -265.000000 65024.000000 25 50 1
260.000000 -265.000000 65024.000000 23 45 1
261.000000 -265.000000 65026.000000 22 45 9
262.000000 -265.000000 65031.000000 21 44 17
263.000000 -265.000000 65032.000000 21 44 9
264.000000 -265.000000 65032.000000 20 44 1
265.000000 -265.000000 65032.000000 20 45 1
266.000000 -265.000000 65034.000000 22 43 1
267.000000 -265.000000 65034.000000 25 39 1
268.000000 -265.000000 65033.000000 26 42 1
269.000000 -265.000000 65032.000000 28 46 1
270.000000 -265.000000 65032.000000 33 58 1
271.000000 -265.000000 65032.000000 37 63 1
272.000000 -265.000000 65032.000000 39 63 1
273.000000 -265.000000 65032.000000 42 62 1
274.000000 -265.000000 65032.000000 48 62 1
275.000000 -265.000000 65032.000000 55 62 1
276.000000 -265.000000 65032.000000 49 63 1
277.000000 -265.000000 65032.000000 43 64 1
278.000000 -265.000000 65032.000000 39 65 1
279.000000 -265.000000 65032.000000 35 67 1
280.000000 -265.000000 65032.000000 43 67 1
281.000000 -265.000000 65032.000000 51 68 1
282.000000 -265.000000 65032.000000 54 68 1
283.000000 -265.000000 65032.000000 57 63 9
284.000000 -265.000000 65032.000000 59 62 17
285.000000 -265.000000 65032.000000 62 55 10
286.000000 -265.000000 65032.000000 57 56 4
287.000000 -265.000000 65032.000000 53 60 19
288.000000 -265.000000 65031.000000 61 65 34
289.000000 -265.000000 65031.000000 69 71 17
290.000000 -265.000000 65030.000000 64 70 1
291.000000 -265.000000 65030.000000 59 70 1
292.000000 -265.000000 65030.000000 53 69 1
293.000000 -265.000000 65029.000000 47 68 1
294.000000 -265.000000 65029.000000 41 69 1
295.000000 -265.000000 65029.000000 36 71 2
296.000000 -265.000000 65029.000000 45 71 3
297.000000 -265.000000 65029.000000 53 72 2
298.000000 -265.000000 65029.000000 46 70 2
299.000000 -265.000000 65028.000000 40 68 3
300.000000 -265.000000 65028.000000 33 23 5
301.000000 -265.000000 65027.000000 27 55 10
302.000000 -265.000000 65026.000000 56 91 15
303.000000 -265.000000 65027.000000 86 107 9
304.000000 -265.000000 65026.000000 71 89 3
305.000000 -265.000000 65026.000000 56 73 2
249.000000 -266.000000 65012.000000 36 33 4
250.000000 -266.000000 65013.000000 46 71 3
251.000000 -266.000000 65013.000000 57 68 2
252.000000 -266.000000 65014.000000 54 65 1
253.000000 -266.000000 65014.000000 51 61 1
254.000000 -266.000000 65016.000000 41 58 1
255.000000 -266.000000 65018.000000 31 53 1
256.000000 -266.000000 65023.000000 21 52 1
257.000000 -266.000000 65023.000000 12 43 1
258.000000 -266.000000 65023.000000 15 44 1
259.000000 -266.000000 65023.000000 19 44 1
260.000000 -266.000000 65024.000000 20 45 1
261.000000 -266.000000 65026.000000 21 44 5
262.000000 -266.000000 65031.000000 21 41 9
263.000000 -266.000000 65032.000000 22 40 5
264.000000 -266.000000 65032.000000 19 39 1
265.000000 -266.000000 65032.000000 16 40 1
266.000000 -266.000000 65033.000000 18 41 1
267.000000 -266.000000 65034.000000 21 39 1
268.000000 -266.000000 65034.000000 24 42 1
269.000000 -266.000000 65034.000000 27 48 1
270.000000 -266.000000 65033.000000 31 58 1
271.000000 -266.000000 65032.000000 36 63 1
272.000000 -266.000000 65032.000000 39 63 2
273.000000 -266.000000 65032.000000 42 61 1
274.000000 -266.000000 65032.000000 51 59 1
275.000000 -266.000000 65032.000000 61 58 1
276.000000 -266.000000 65032.000000 52 58 1
277.000000 -266.000000 65032.000000 44 64 1
278.000000 -266.000000 65032.000000 41 67 1
279.000000 -266.000000 65032.000000 39 67 1
280.000000 -266.000000 65032.000000 46 68 1
281.000000 -266.000000 65032.000000 53 68 1
282.000000 -266.000000 65032.000000 54 69 1
283.000000 -266.000000 65032.000000 56 66 5
284.000000 -266.000000 65032.000000 61 63 9
285.000000 -266.000000 65032.000000 67 55 5
286.000000 -266.000000 65032.000000 60 58 2
287.000000 -266.000000 65032.000000 54 60 10
288.000000 -266.000000 65032.000000 66 63 17
289.000000 -266.000000 65031.000000 79 68 9
290.000000 -266.000000 65030.000000 70 70 1
291.000000 -266.000000 65030.000000 61 70 1
292.000000 -266.000000 65030.000000 54 65 1
293.000000 -266.000000 65029.000000 47 66 1
294.000000 -266.000000 65030.000000 45 70 1
295.000000 -266.000000 65030.000000 44 69 1
296.000000 -266.000000 65029.000000 51 68 2
297.000000 -266.000000 65029.000000 58 72 2
298.000000 -266.000000 65029.000000 48 80 2
299.000000 -266.000000 65028.000000 39 66 2
300.000000 -266.000000 65027.000000 36 29 3
301.000000 -266.000000 65027.000000 33 36 6
302.000000 -266.000000 65026.000000 55 83 8
303.000000 -266.000000 65026.000000 77 88 5
304.000000 -266.000000 65026.000000 66 94 3
305.000000 -266.000000 65026.000000 55 81 2
249.000000 -267.000000 65012.000000 31 34 6
250.000000 -267.000000 65013.000000 45 63 5
251.000000 -267.000000 65013.000000 59 77 3
252.000000 -267.000000 65014.000000 52 71 1
253.000000 -267.000000 65014.000000 46 66 1
254.000000 -267.000000 65017.000000 37 52 1
255.000000 -267.000000 65019.000000 29 51 1
256.000000 -267.000000 65023.000000 23 46 1
257.000000 -267.000000 65023.000000 17 41 1
258.000000 -267.000000 65024.000000 19 43 1
259.000000 -267.000000 65024.000000 22 47 1
260.000000 -267.000000 65025.000000 22 45 1
261.000000 -267.000000 65026.000000 23 43 1
262.000000 -267.000000 65032.000000 24 41 1
263.000000 -267.000000 65032.000000 26 38 1
264.000000 -267.000000 65033.000000 21 40 1
265.000000 -267.000000 65033.000000 17 42 1
266.000000 -267.000000 65034.000000 18 42 1
267.000000 -267.000000 65034.000000 19 39 1
268.000000 -267.000000 65034.000000 22 43 1
269.000000 -267.000000 65034.000000 26 50 1
270.000000 -267.000000 65033.000000 31 57 1
271.000000 -267.000000 65033.000000 36 64 2
272.000000 -267.000000 65033.000000 39 64 3
273.000000 -267.000000 65033.000000 42 68 2
274.000000 -267.000000 65032.000000 46 63 2
275.000000 -267.000000 65032.000000 51 59 1
276.000000 -267.000000 65032.000000 46 61 1
277.000000 -267.000000 65032.000000 42 64 1
278.000000 -267.000000 65032.000000 39 64 1
279.000000 -267.000000 65032.000000 37 64 1
280.000000 -267.000000 65032.000000 46 67 1
281.000000 -267.000000 65032.000000 56 68 1
282.000000 -267.000000 65032.000000 55 66 2
283.000000 -267.000000 65032.000000 54 74 1
284.000000 -267.000000 65032.000000 56 54 1
285.000000 -267.000000 65032.000000 59 56 1
286.000000 -267.000000 65032.000000 54 57 1
287.000000 -267.000000 65032.000000 50 60 1
288.000000 -267.000000 65032.000000 59 62 1
289.000000 -267.000000 65032.000000 68 65 1
290.000000 -267.000000 65032.000000 63 70 1
291.000000 -267.000000 65031.000000 58 70 1
292.000000 -267.000000 65031.000000 53 65 1
293.000000 -267.000000 65031.000000 47 65 1
294.000000 -267.000000 65031.000000 43 64 1
295.000000 -267.000000 65031.000000 39 63 1
296.000000 -267.000000 65030.000000 40 67 2
297.000000 -267.000000 65030.000000 42 72 2
298.000000 -267.000000 65029.000000 31 68 2
299.000000 -267.000000 65029.000000 20 64 2
300.000000 -267.000000 65028.000000 19 19 2
301.000000 -267.000000 65026.000000 18 18 2
302.000000 -267.000000 65026.000000 28 50 2
303.000000 -267.000000 65026.000000 39 82 2
304.000000 -267.000000 65026.000000 42 86 3
305.000000 -267.000000 65026.000000 45 90 2
248.000000 -268.000000 65011.000000 17 19 5
249.000000 -268.000000 65012.000000 27 30 4
250.000000 -268.000000 65013.000000 44 56 3
251.000000 -268.000000 65013.000000 61 51 2
252.000000 -268.000000 65014.000000 51 46 1
253.000000 -268.000000 65015.000000 41 46 1
254.000000 -268.000000 65017.000000 34 47 1
255.000000 -268.000000 65020.000000 27 43 1
256.000000 -268.000000 65023.000000 25 40 1
257.000000 -268.000000 65023.000000 23 41 1
258.000000 -268.000000 65023.000000 24 42 1
259.000000 -268.000000 65024.000000 25 45 1
260.000000 -268.000000 65024.000000 25 46 1
261.000000 -268.000000 65026.000000 26 44 1
262.000000 -268.000000 65032.000000 28 42 1
263.000000 -268.000000 65033.000000 30 32 1
264.000000 -268.000000 65033.000000 24 30 1
265.000000 -268.000000 65034.000000 19 38 1
266.000000 -268.000000 65034.000000 18 43 1
267.000000 -268.000000 65034.000000 18 39 1
268.000000 -268.000000 65034.000000 21 44 1
269.000000 -268.000000 65034.000000 25 51 1
270.000000 -268.000000 65034.000000 31 56 1
271.000000 -268.000000 65034.000000 37 60 1
272.000000 -268.000000 65033.000000 39 65 2
273.000000 -268.000000 65032.000000 42 66 2
274.000000 -268.000000 65033.000000 41 68 1
275.000000 -268.000000 65032.000000 41 61 1
276.000000 -268.000000 65032.000000 41 63 1
277.000000 -268.000000 65032.000000 41 62 1
278.000000 -268.000000 65032.000000 38 62 1
279.000000 -268.000000 65032.000000 35 63 1
280.000000 -268.000000 65032.000000 47 66 1
281.000000 -268.000000 65032.000000 59 65 1
282.000000 -268.000000 65032.000000 56 64 1
283.000000 -268.000000 65032.000000 53 55 1
284.000000 -268.000000 65032.000000 52 46 1
285.000000 -268.000000 65032.000000 51 53 1
286.000000 -268.000000 65032.000000 49 56 1
287.000000 -268.000000 65032.000000 47 59 2
288.000000 -268.000000 65032.000000 52 62 3
289.000000 -268.000000 65032.000000 58 64 2
290.000000 -268.000000 65031.000000 57 71 1
291.000000 -268.000000 65031.000000 56 68 1
292.000000 -268.000000 65031.000000 52 66 1
293.000000 -268.000000 65031.000000 48 65 1
294.000000 -268.000000 65031.000000 41 61 1
295.000000 -268.000000 65031.000000 34 45 1
296.000000 -268.000000 65030.000000 30 30 1
297.000000 -268.000000 65030.000000 26 23 1
298.000000 -268.000000 65029.000000 14 16 1
299.000000 -268.000000 65029.000000 2 12 1
300.000000 -268.000000 65028.000000 3 9 1
301.000000 -268.000000 65026.000000 4 9 1
302.000000 -268.000000 65026.000000 2 9 1
303.000000 -268.000000 65026.000000 1 12 1
304.000000 -268.000000 65026.000000 18 16 2
305.000000 -268.000000 65026.000000 36 68 4
248.000000 -269.000000 65012.000000 12 11 2
249.000000 -269.000000 65013.000000 21 26 2
250.000000 -269.000000 65014.000000 34 29 2
251.000000 -269.000000 65013.000000 47 33 1
252.000000 -269.000000 65015.000000 39 37 1
253.000000 -269.000000 65016.000000 31 41 1
254.000000 -269.000000 65017.000000 29 39 1
255.000000 -269.000000 65020.000000 28 37 1
256.000000 -269.000000 65023.000000 23 37 1
257.000000 -269.000000 65023.000000 18 38 1
258.000000 -269.000000 65024.000000 21 40 2
259.000000 -269.000000 65024.000000 24 44 1
260.000000 -269.000000 65025.000000 22 39 1
261.000000 -269.000000 65026.000000 20 34 1
262.000000 -269.000000 65032.000000 24 30 1
263.000000 -269.000000 65032.000000 28 27 1
264.000000 -269.000000 65033.000000 25 29 1
265.000000 -269.000000 65033.000000 22 34 1
266.000000 -269.000000 65034.000000 21 36 1
267.000000 -269.000000 65034.000000 20 39 1
268.000000 -269.000000 65035.000000 23 47 1
269.000000 -269.000000 65035.000000 27 53 1
270.000000 -269.000000 65035.000000 32 56 1
271.000000 -269.000000 65035.000000 37 57 1
272.000000 -269.000000 65034.000000 38 59 2
273.000000 -269.000000 65033.000000 40 61 1
274.000000 -269.000000 65033.000000 40 62 1
275.000000 -269.000000 65033.000000 41 63 1
276.000000 -269.000000 65034.000000 42 61 1
277.000000 -269.000000 65033.000000 42 55 1
278.000000 -269.000000 65033.000000 40 58 1
279.000000 -269.000000 65032.000000 38 62 1
280.000000 -269.000000 65032.000000 47 63 1
281.000000 -269.000000 65033.000000 55 64 1
282.000000 -269.000000 65032.000000 53 61 1
283.000000 -269.000000 65032.000000 51 51 1
284.000000 -269.000000 65032.000000 48 51 1
285.000000 -269.000000 65032.000000 45 51 1
286.000000 -269.000000 65032.000000 46 50 2
287.000000 -269.000000 65032.000000 47 50 4
288.000000 -269.000000 65032.000000 54 56 6
289.000000 -269.000000 65032.000000 61 64 4
290.000000 -269.000000 65031.000000 57 65 2
291.000000 -269.000000 65031.000000 53 66 1
292.000000 -269.000000 65031.000000 47 66 1
293.000000 -269.000000 65030.000000 41 66 1
294.000000 -269.000000 65031.000000 29 45 1
295.000000 -269.000000 65031.000000 17 25 1
296.000000 -269.000000 65030.000000 17 18 1
297.000000 -269.000000 65030.000000 17 12 1
298.000000 -269.000000 65029.000000 12 14 1
299.000000 -269.000000 65029.000000 7 7 1
300.000000 -269.000000 65028.000000 9 7 1
301.000000 -269.000000 65026.000000 12 8 1
302.000000 -269.000000 65026.000000 17 8 1
303.000000 -269.000000 65026.000000 23 9 1
304.000000 -269.000000 65026.000000 31 31 1
305.000000 -269.000000 65026.000000 39 46 7
248.000000 -270.000000 65013.000000 8 4 1
249.000000 -270.000000 65013.000000 15 19 2
250.000000 -270.000000 65014.000000 24 20 4
251.000000 -270.000000 65013.000000 33 36 2
252.000000 -270.000000 65015.000000 27 30 1
253.000000 -270.000000 65017.000000 21 42 1
254.000000 -270.000000 65017.000000 25 38 1
255.000000 -270.000000 65021.000000 29 37 1
256.000000 -270.000000 65023.000000 21 37 1
257.000000 -270.000000 65023.000000 14 38 1
258.000000 -270.000000 65024.000000 19 39 1
259.000000 -270.000000 65024.000000 24 43 1
260.000000 -270.000000 65025.000000 19 30 1
261.000000 -270.000000 65026.000000 15 31 1
262.000000 -270.000000 65032.000000 20 32 1
263.000000 -270.000000 65032.000000 26 30 1
264.000000 -270.000000 65033.000000 25 28 1
265.000000 -270.000000 65033.000000 25 32 1
266.000000 -270.000000 65035.000000 23 36 1
267.000000 -270.000000 65034.000000 22 44 1
268.000000 -270.000000 65035.000000 26 50 1
269.000000 -270.000000 65035.000000 30 54 1
270.000000 -270.000000 65035.000000 33 56 1
271.000000 -270.000000 65035.000000 37 57 1
272.000000 -270.000000 65034.000000 37 58 1
273.000000 -270.000000 65034.000000 38 61 1
274.000000 -270.000000 65034.000000 40 63 1
275.000000 -270.000000 65034.000000 42 61 1
276.000000 -270.000000 65034.000000 43 59 1
277.000000 -270.000000 65034.000000 44 57 1
278.000000 -270.000000 65033.000000 43 54 1
279.000000 -270.000000 65032.000000 42 60 1
280.000000 -270.000000 65032.000000 47 63 1
281.000000 -270.000000 65033.000000 52 60 1
282.000000 -270.000000 65032.000000 50 58 1
283.000000 -270.000000 65032.000000 49 54 1
284.000000 -270.000000 65032.000000 44 51 1
285.000000 -270.000000 65032.000000 39 52 1
286.000000 -270.000000 65032.000000 43 47 1
287.000000 -270.000000 65032.000000 48 49 3
288.000000 -270.000000 65032.000000 56 50 5
289.000000 -270.000000 65032.000000 65 60 3
290.000000 -270.000000 65031.000000 57 60 1
291.000000 -270.000000 65031.000000 50 60 1
292.000000 -270.000000 65031.000000 42 60 1
293.000000 -270.000000 65031.000000 34 62 1
294.000000 -270.000000 65031.000000 17 14 1
295.000000 -270.000000 65031.000000 1 8 1
296.000000 -270.000000 65031.000000 5 3 1
297.000000 -270.000000 65031.000000 9 16 1
298.000000 -270.000000 65029.000000 10 13 1
299.000000 -270.000000 65029.000000 12 8 1
300.000000 -270.000000 65029.000000 16 4 1
301.000000 -270.000000 65026.000000 20 10 1
302.000000 -270.000000 65025.000000 32 58 2
303.000000 -270.000000 65025.000000 45 52 1
304.000000 -270.000000 65025.000000 43 47 1
305.000000 -270.000000 65026.000000 42 46 4
248.000000 -271.000000 65012.000000 12 4 1
249.000000 -271.000000 65012.000000 22 13 3
250.000000 -271.000000 65014.000000 34 26 6
251.000000 -271.000000 65013.000000 46 39 4
252.000000 -271.000000 65015.000000 40 41 2
253.000000 -271.000000 65017.000000 35 44 1
254.000000 -271.000000 65017.000000 34 44 1
255.000000 -271.000000 65017.000000 33 44 1
256.000000 -271.000000 65023.000000 29 41 1
257.000000 -271.000000 65024.000000 24 38 1
258.000000 -271.000000 65024.000000 28 40 1
259.000000 -271.000000 65024.000000 33 42 1
260.000000 -271.000000 65026.000000 31 41 1
261.000000 -271.000000 65026.000000 30 40 1
262.000000 -271.000000 65032.000000 32 40 1
263.000000 -271.000000 65032.000000 35 40 1
264.000000 -271.000000 65033.000000 33 41 1
265.000000 -271.000000 65033.000000 30 43 1
266.000000 -271.000000 65034.000000 29 39 1
267.000000 -271.000000 65034.000000 28 50 1
268.000000 -271.000000 65034.000000 29 52 1
269.000000 -271.000000 65035.000000 31 55 1
270.000000 -271.000000 65035.000000 34 57 1
271.000000 -271.000000 65035.000000 37 58 1
272.000000 -271.000000 65034.000000 38 58 1
273.000000 -271.000000 65034.000000 39 62 1
274.000000 -271.000000 65034.000000 42 58 1
275.000000 -271.000000 65034.000000 44 55 1
276.000000 -271.000000 65034.000000 42 57 1
277.000000 -271.000000 65034.000000 41 59 1
278.000000 -271.000000 65033.000000 37 59 1
279.000000 -271.000000 65033.000000 34 59 1
280.000000 -271.000000 65032.000000 42 58 1
281.000000 -271.000000 65033.000000 51 58 1
282.000000 -271.000000 65032.000000 51 59 1
283.000000 -271.000000 65033.000000 52 61 1
284.000000 -271.000000 65032.000000 48 57 1
285.000000 -271.000000 65032.000000 44 54 1
286.000000 -271.000000 65032.000000 45 50 1
287.000000 -271.000000 65032.000000 46 48 2
288.000000 -271.000000 65032.000000 53 52 4
289.000000 -271.000000 65032.000000 60 56 2
290.000000 -271.000000 65032.000000 55 60 1
291.000000 -271.000000 65031.000000 50 68 1
292.000000 -271.000000 65031.000000 43 63 2
293.000000 -271.000000 65031.000000 37 58 1
294.000000 -271.000000 65031.000000 22 13 1
295.000000 -271.000000 65031.000000 8 3 1
296.000000 -271.000000 65031.000000 12 2 1
297.000000 -271.000000 65031.000000 16 20 1
298.000000 -271.000000 65031.000000 18 23 1
299.000000 -271.000000 65029.000000 21 26 1
300.000000 -271.000000 65029.000000 23 19 1
301.000000 -271.000000 65029.000000 26 12 2
302.000000 -271.000000 65024.000000 47 76 3
303.000000 -271.000000 65025.000000 68 95 2
304.000000 -271.000000 65024.000000 61 65 1
305.000000 -271.000000 65024.000000 54 46 1
248.000000 -272.000000 65012.000000 16 4 1
249.000000 -272.000000 65012.000000 30 31 7
250.000000 -272.000000 65012.000000 44 56 13
251.000000 -272.000000 65013.000000 59 56 7
252.000000 -272.000000 65014.000000 54 56 1
253.000000 -272.000000 65014.000000 49 53 1
254.000000 -272.000000 65017.000000 43 50 1
255.000000 -272.000000 65017.000000 38 48 1
256.000000 -272.000000 65023.000000 36 46 1
257.000000 -272.000000 65023.000000 35 45 1
258.000000 -272.000000 65024.000000 38 44 1
259.000000 -272.000000 65024.000000 42 45 1
260.000000 -272.000000 65026.000000 43 47 1
261.000000 -272.000000 65027.000000 45 46 1
262.000000 -272.000000 65032.000000 45 46 1
263.000000 -272.000000 65032.000000 45 48 9
264.000000 -272.000000 65033.000000 40 51 17
265.000000 -272.000000 65033.000000 36 46 9
266.000000 -272.000000 65034.000000 35 42 1
267.000000 -272.000000 65034.000000 34 52 1
268.000000 -272.000000 65035.000000 33 55 1
269.000000 -272.000000 65034.000000 32 57 3
270.000000 -272.000000 65034.000000 35 59 6
271.000000 -272.000000 65035.000000 38 58 3
272.000000 -272.000000 65035.000000 39 59 1
273.000000 -272.000000 65034.000000 41 62 1
274.000000 -272.000000 65034.000000 44 55 1
275.000000 -272.000000 65034.000000 47 55 1
276.000000 -272.000000 65034.000000 42 55 1
277.000000 -272.000000 65033.000000 38 61 1
278.000000 -272.000000 65033.000000 32 62 1
279.000000 -272.000000 65032.000000 27 61 1
280.000000 -272.000000 65032.000000 38 60 1
281.000000 -272.000000 65032.000000 50 64 13
282.000000 -272.000000 65032.000000 53 68 25
283.000000 -272.000000 65033.000000 56 66 13
284.000000 -272.000000 65032.000000 52 64 1
285.000000 -272.000000 65032.000000 49 59 1
286.000000 -272.000000 65032.000000 47 53 1
287.000000 -272.000000 65032.000000 45 56 15
288.000000 -272.000000 65032.000000 50 60 28
289.000000 -272.000000 65032.000000 56 60 14
290.000000 -272.000000 65032.000000 53 61 1
291.000000 -272.000000 65032.000000 50 64 5
292.000000 -272.000000 65031.000000 45 67 10
293.000000 -272.000000 65031.000000 41 60 5
294.000000 -272.000000 65031.000000 28 13 1
