ply
    format ascii 1.0
    element vertex 10974
    property float x
    property float y
    property float z
    property uchar red
    property uchar green
    property uchar blue
    end_header
279.000000 -272.000000 65032.000000 39 46 2
280.000000 -272.000000 65032.000000 38 46 1
281.000000 -272.000000 65032.000000 38 49 2
282.000000 -272.000000 65032.000000 41 52 4
283.000000 -272.000000 65033.000000 45 53 2
284.000000 -272.000000 65031.000000 50 55 1
285.000000 -272.000000 65030.000000 56 62 1
286.000000 -272.000000 65029.000000 64 69 1
287.000000 -272.000000 65029.000000 73 86 2
288.000000 -272.000000 65029.000000 76 86 3
289.000000 -272.000000 65029.000000 80 91 2
290.000000 -272.000000 65028.000000 80 83 1
291.000000 -272.000000 65027.000000 80 91 14
292.000000 -272.000000 65027.000000 78 89 26
293.000000 -272.000000 65026.000000 76 87 13
294.000000 -272.000000 65025.000000 69 85 1
295.000000 -272.000000 65024.000000 62 79 1
296.000000 -272.000000 65023.000000 56 78 1
297.000000 -272.000000 65023.000000 50 77 1
298.000000 -272.000000 65023.000000 51 77 1
299.000000 -272.000000 65023.000000 53 79 1
300.000000 -272.000000 65023.000000 53 81 1
301.000000 -272.000000 65022.000000 53 79 1
302.000000 -272.000000 65020.000000 47 78 1
303.000000 -272.000000 65019.000000 42 75 1
304.000000 -272.000000 65019.000000 46 73 1
305.000000 -272.000000 65018.000000 51 72 5
306.000000 -272.000000 65017.000000 54 71 9
307.000000 -272.000000 65017.000000 57 71 7
308.000000 -272.000000 65013.000000 57 64 5
309.000000 -272.000000 65013.000000 57 71 4
310.000000 -272.000000 65013.000000 62 79 4
311.000000 -272.000000 65013.000000 68 79 7
312.000000 -272.000000 65013.000000 75 79 10
313.000000 -272.000000 65013.000000 82 78 18
314.000000 -272.000000 65013.000000 86 76 26
249.000000 -273.000000 65017.000000 6 1 1
250.000000 -273.000000 65017.000000 20 44 1
251.000000 -273.000000 65017.000000 34 51 1
252.000000 -273.000000 65018.000000 36 55 1
253.000000 -273.000000 65020.000000 38 56 1
254.000000 -273.000000 65020.000000 32 55 1
255.000000 -273.000000 65022.000000 27 55 11
256.000000 -273.000000 65023.000000 29 55 21
257.000000 -273.000000 65023.000000 31 55 11
258.000000 -273.000000 65023.000000 26 54 1
259.000000 -273.000000 65024.000000 22 54 1
260.000000 -273.000000 65025.000000 28 54 1
261.000000 -273.000000 65025.000000 35 54 1
262.000000 -273.000000 65026.000000 37 54 1
263.000000 -273.000000 65026.000000 40 50 1
264.000000 -273.000000 65026.000000 35 46 1
265.000000 -273.000000 65026.000000 30 42 1
266.000000 -273.000000 65028.000000 30 40 1
267.000000 -273.000000 65028.000000 31 39 1
268.000000 -273.000000 65029.000000 30 37 1
269.000000 -273.000000 65029.000000 29 36 1
270.000000 -273.000000 65029.000000 29 36 1
271.000000 -273.000000 65029.000000 29 37 1
272.000000 -273.000000 65029.000000 31 41 1
273.000000 -273.000000 65029.000000 34 47 11
274.000000 -273.000000 65030.000000 37 46 22
275.000000 -273.000000 65031.000000 41 46 11
276.000000 -273.000000 65031.000000 38 43 1
277.000000 -273.000000 65032.000000 35 50 4
278.000000 -273.000000 65032.000000 41 50 8
279.000000 -273.000000 65032.000000 47 50 4
280.000000 -273.000000 65032.000000 44 45 1
281.000000 -273.000000 65032.000000 41 61 4
282.000000 -273.000000 65032.000000 44 53 7
283.000000 -273.000000 65031.000000 47 56 4
284.000000 -273.000000 65031.000000 53 57 1
285.000000 -273.000000 65030.000000 60 59 1
286.000000 -273.000000 65029.000000 71 78 1
287.000000 -273.000000 65029.000000 82 87 1
288.000000 -273.000000 65029.000000 81 88 2
289.000000 -273.000000 65029.000000 79 90 1
290.000000 -273.000000 65028.000000 82 90 1
291.000000 -273.000000 65027.000000 85 90 25
292.000000 -273.000000 65027.000000 79 88 49
293.000000 -273.000000 65026.000000 74 87 25
294.000000 -273.000000 65026.000000 67 84 1
295.000000 -273.000000 65025.000000 60 77 1
296.000000 -273.000000 65024.000000 58 78 1
297.000000 -273.000000 65023.000000 55 79 1
298.000000 -273.000000 65023.000000 59 80 1
299.000000 -273.000000 65023.000000 62 82 1
300.000000 -273.000000 65023.000000 64 83 1
301.000000 -273.000000 65022.000000 67 84 1
302.000000 -273.000000 65021.000000 66 83 1
303.000000 -273.000000 65020.000000 65 83 1
304.000000 -273.000000 65019.000000 65 80 1
305.000000 -273.000000 65018.000000 65 77 9
306.000000 -273.000000 65017.000000 68 75 17
307.000000 -273.000000 65016.000000 72 73 13
308.000000 -273.000000 65014.000000 69 76 10
309.000000 -273.000000 65013.000000 67 79 8
310.000000 -273.000000 65013.000000 70 83 7
311.000000 -273.000000 65013.000000 73 87 8
312.000000 -273.000000 65013.000000 77 83 10
313.000000 -273.000000 65013.000000 82 80 14
314.000000 -273.000000 65013.000000 85 78 19
249.000000 -274.000000 65017.000000 9 1 1
250.000000 -274.000000 65017.000000 20 43 1
251.000000 -274.000000 65017.000000 32 53 1
252.000000 -274.000000 65018.000000 35 55 1
253.000000 -274.000000 65020.000000 39 54 1
254.000000 -274.000000 65021.000000 32 50 1
255.000000 -274.000000 65022.000000 25 54 6
256.000000 -274.000000 65023.000000 29 55 11
257.000000 -274.000000 65023.000000 34 54 6
258.000000 -274.000000 65023.000000 29 51 1
259.000000 -274.000000 65024.000000 24 52 1
260.000000 -274.000000 65025.000000 29 54 1
261.000000 -274.000000 65025.000000 34 54 1
262.000000 -274.000000 65026.000000 35 54 1
263.000000 -274.000000 65026.000000 36 50 1
264.000000 -274.000000 65026.000000 28 42 1
265.000000 -274.000000 65026.000000 21 40 2
266.000000 -274.000000 65028.000000 24 37 3
267.000000 -274.000000 65028.000000 28 35 2
268.000000 -274.000000 65029.000000 24 34 1
269.000000 -274.000000 65029.000000 21 32 1
270.000000 -274.000000 65029.000000 24 30 1
271.000000 -274.000000 65029.000000 28 33 1
272.000000 -274.000000 65029.000000 30 40 1
273.000000 -274.000000 65029.000000 33 43 6
274.000000 -274.000000 65030.000000 35 45 11
275.000000 -274.000000 65031.000000 37 44 6
276.000000 -274.000000 65031.000000 36 44 1
277.000000 -274.000000 65032.000000 36 46 2
278.000000 -274.000000 65032.000000 46 49 4
279.000000 -274.000000 65032.000000 56 47 2
280.000000 -274.000000 65032.000000 50 45 1
281.000000 -274.000000 65032.000000 45 50 2
282.000000 -274.000000 65032.000000 47 55 4
283.000000 -274.000000 65032.000000 50 55 2
284.000000 -274.000000 65031.000000 57 60 1
285.000000 -274.000000 65030.000000 64 57 1
286.000000 -274.000000 65029.000000 78 88 1
287.000000 -274.000000 65029.000000 92 85 2
288.000000 -274.000000 65029.000000 85 92 3
289.000000 -274.000000 65029.000000 79 92 2
290.000000 -274.000000 65028.000000 84 92 1
291.000000 -274.000000 65028.000000 90 91 13
292.000000 -274.000000 65027.000000 81 93 25
293.000000 -274.000000 65026.000000 73 86 13
294.000000 -274.000000 65026.000000 66 83 1
295.000000 -274.000000 65025.000000 59 83 2
296.000000 -274.000000 65023.000000 60 83 3
297.000000 -274.000000 65023.000000 61 85 4
298.000000 -274.000000 65023.000000 66 87 5
299.000000 -274.000000 65023.000000 72 85 11
300.000000 -274.000000 65023.000000 76 89 16
301.000000 -274.000000 65022.000000 81 86 27
302.000000 -274.000000 65020.000000 85 84 38
303.000000 -274.000000 65020.000000 89 86 23
304.000000 -274.000000 65019.000000 84 93 9
305.000000 -274.000000 65018.000000 80 92 28
306.000000 -274.000000 65017.000000 83 92 48
307.000000 -274.000000 65016.000000 87 92 30
308.000000 -274.000000 65014.000000 82 92 13
309.000000 -274.000000 65013.000000 78 96 9
310.000000 -274.000000 65013.000000 78 100 5
311.000000 -274.000000 65013.000000 79 87 8
312.000000 -274.000000 65013.000000 80 87 11
313.000000 -274.000000 65013.000000 82 81 11
314.000000 -274.000000 65013.000000 85 80 11
250.000000 -275.000000 65017.000000 24 46 1
251.000000 -275.000000 65017.000000 36 56 1
252.000000 -275.000000 65020.000000 38 54 1
253.000000 -275.000000 65020.000000 40 52 1
254.000000 -275.000000 65020.000000 35 52 1
255.000000 -275.000000 65020.000000 29 53 1
256.000000 -275.000000 65023.000000 31 53 1
257.000000 -275.000000 65023.000000 32 53 1
258.000000 -275.000000 65023.000000 27 50 1
259.000000 -275.000000 65024.000000 22 47 1
260.000000 -275.000000 65025.000000 29 52 1
261.000000 -275.000000 65025.000000 36 54 1
262.000000 -275.000000 65026.000000 36 52 2
263.000000 -275.000000 65026.000000 36 51 1
264.000000 -275.000000 65026.000000 29 44 1
265.000000 -275.000000 65026.000000 23 39 3
266.000000 -275.000000 65028.000000 25 29 5
267.000000 -275.000000 65028.000000 27 21 3
268.000000 -275.000000 65029.000000 26 22 1
269.000000 -275.000000 65029.000000 26 23 1
270.000000 -275.000000 65029.000000 26 26 1
271.000000 -275.000000 65029.000000 27 30 1
272.000000 -275.000000 65029.000000 29 39 1
273.000000 -275.000000 65029.000000 30 42 1
274.000000 -275.000000 65030.000000 32 43 1
275.000000 -275.000000 65031.000000 35 44 1
276.000000 -275.000000 65031.000000 32 44 1
277.000000 -275.000000 65032.000000 30 42 1
278.000000 -275.000000 65032.000000 39 43 1
279.000000 -275.000000 65032.000000 48 45 1
280.000000 -275.000000 65032.000000 46 46 1
281.000000 -275.000000 65032.000000 45 47 1
282.000000 -275.000000 65032.000000 46 54 1
283.000000 -275.000000 65031.000000 48 55 1
284.000000 -275.000000 65030.000000 53 55 1
285.000000 -275.000000 65030.000000 58 55 1
286.000000 -275.000000 65029.000000 67 69 1
287.000000 -275.000000 65029.000000 76 84 2
288.000000 -275.000000 65029.000000 71 85 4
289.000000 -275.000000 65029.000000 66 86 3
290.000000 -275.000000 65028.000000 70 87 2
291.000000 -275.000000 65028.000000 73 89 2
292.000000 -275.000000 65027.000000 69 87 2
293.000000 -275.000000 65026.000000 64 86 1
294.000000 -275.000000 65026.000000 58 82 1
295.000000 -275.000000 65025.000000 51 78 3
296.000000 -275.000000 65023.000000 55 80 6
297.000000 -275.000000 65023.000000 59 87 8
298.000000 -275.000000 65023.000000 65 85 10
299.000000 -275.000000 65023.000000 72 84 21
300.000000 -275.000000 65023.000000 76 86 32
301.000000 -275.000000 65022.000000 80 91 54
302.000000 -275.000000 65020.000000 83 90 76
303.000000 -275.000000 65020.000000 86 89 46
304.000000 -275.000000 65019.000000 83 90 17
305.000000 -275.000000 65018.000000 79 91 48
306.000000 -275.000000 65017.000000 81 90 79
307.000000 -275.000000 65016.000000 84 90 48
308.000000 -275.000000 65014.000000 82 91 17
309.000000 -275.000000 65014.000000 80 92 10
310.000000 -275.000000 65014.000000 80 90 3
311.000000 -275.000000 65014.000000 80 88 7
312.000000 -275.000000 65013.000000 81 86 12
313.000000 -275.000000 65013.000000 82 82 8
314.000000 -275.000000 65013.000000 84 80 4
315.000000 -275.000000 65013.000000 87 76 2
252.000000 -276.000000 65020.000000 41 54 1
253.000000 -276.000000 65020.000000 42 53 3
254.000000 -276.000000 65020.000000 38 53 5
255.000000 -276.000000 65020.000000 34 53 3
256.000000 -276.000000 65023.000000 32 53 1
257.000000 -276.000000 65023.000000 31 52 1
258.000000 -276.000000 65023.000000 26 50 1
259.000000 -276.000000 65024.000000 21 50 1
260.000000 -276.000000 65025.000000 29 50 1
261.000000 -276.000000 65025.000000 38 56 1
262.000000 -276.000000 65026.000000 37 58 2
263.000000 -276.000000 65026.000000 37 51 1
264.000000 -276.000000 65026.000000 31 46 1
265.000000 -276.000000 65027.000000 25 40 2
266.000000 -276.000000 65028.000000 26 21 3
267.000000 -276.000000 65028.000000 27 21 2
268.000000 -276.000000 65029.000000 29 22 1
269.000000 -276.000000 65029.000000 31 21 1
270.000000 -276.000000 65029.000000 29 21 1
271.000000 -276.000000 65029.000000 27 37 1
272.000000 -276.000000 65030.000000 27 38 1
273.000000 -276.000000 65030.000000 28 39 1
274.000000 -276.000000 65031.000000 30 37 2
275.000000 -276.000000 65031.000000 33 43 1
276.000000 -276.000000 65032.000000 29 44 1
277.000000 -276.000000 65032.000000 25 41 1
278.000000 -276.000000 65032.000000 33 42 1
279.000000 -276.000000 65032.000000 41 46 3
280.000000 -276.000000 65032.000000 43 49 6
281.000000 -276.000000 65032.000000 45 48 3
282.000000 -276.000000 65032.000000 46 53 1
283.000000 -276.000000 65031.000000 47 52 1
284.000000 -276.000000 65031.000000 49 52 1
285.000000 -276.000000 65030.000000 52 50 1
286.000000 -276.000000 65029.000000 56 49 1
287.000000 -276.000000 65029.000000 61 53 1
288.000000 -276.000000 65029.000000 57 57 2
289.000000 -276.000000 65029.000000 54 58 2
290.000000 -276.000000 65028.000000 55 60 1
291.000000 -276.000000 65028.000000 57 61 1
292.000000 -276.000000 65027.000000 56 62 1
293.000000 -276.000000 65026.000000 56 64 1
294.000000 -276.000000 65026.000000 50 66 1
295.000000 -276.000000 65026.000000 44 75 2
296.000000 -276.000000 65024.000000 51 77 3
297.000000 -276.000000 65023.000000 58 80 6
298.000000 -276.000000 65023.000000 65 84 9
299.000000 -276.000000 65023.000000 72 84 19
300.000000 -276.000000 65023.000000 76 84 30
301.000000 -276.000000 65022.000000 80 86 41
302.000000 -276.000000 65020.000000 82 88 52
303.000000 -276.000000 65019.000000 84 86 36
304.000000 -276.000000 65019.000000 81 84 21
305.000000 -276.000000 65018.000000 79 84 41
306.000000 -276.000000 65017.000000 80 84 61
307.000000 -276.000000 65016.000000 81 84 47
308.000000 -276.000000 65015.000000 81 85 33
309.000000 -276.000000 65015.000000 82 89 20
310.000000 -276.000000 65015.000000 82 95 8
311.000000 -276.000000 65015.000000 82 87 14
312.000000 -276.000000 65015.000000 82 85 21
313.000000 -276.000000 65015.000000 83 81 13
314.000000 -276.000000 65015.000000 84 80 6
315.000000 -276.000000 65015.000000 86 76 14
251.000000 -277.000000 65020.000000 41 55 1
252.000000 -277.000000 65020.000000 44 52 1
253.000000 -277.000000 65020.000000 47 50 5
254.000000 -277.000000 65020.000000 42 50 9
255.000000 -277.000000 65021.000000 36 51 5
256.000000 -277.000000 65023.000000 33 51 1
257.000000 -277.000000 65023.000000 31 52 1
258.000000 -277.000000 65024.000000 28 51 1
259.000000 -277.000000 65024.000000 25 54 1
260.000000 -277.000000 65025.000000 32 56 1
261.000000 -277.000000 65025.000000 38 58 1
262.000000 -277.000000 65026.000000 41 57 2
263.000000 -277.000000 65026.000000 44 52 1
264.000000 -277.000000 65026.000000 37 47 1
265.000000 -277.000000 65028.000000 31 42 1
266.000000 -277.000000 65028.000000 33 38 1
267.000000 -277.000000 65029.000000 35 34 1
268.000000 -277.000000 65029.000000 36 39 1
269.000000 -277.000000 65029.000000 37 44 1
270.000000 -277.000000 65029.000000 38 44 1
271.000000 -277.000000 65029.000000 39 44 1
272.000000 -277.000000 65030.000000 36 42 1
273.000000 -277.000000 65030.000000 34 41 2
274.000000 -277.000000 65031.000000 36 42 3
275.000000 -277.000000 65031.000000 37 43 2
276.000000 -277.000000 65032.000000 34 44 1
277.000000 -277.000000 65032.000000 32 41 1
278.000000 -277.000000 65032.000000 37 44 1
279.000000 -277.000000 65032.000000 43 47 6
280.000000 -277.000000 65032.000000 44 49 12
281.000000 -277.000000 65032.000000 46 50 6
282.000000 -277.000000 65032.000000 47 49 1
283.000000 -277.000000 65032.000000 49 49 1
284.000000 -277.000000 65032.000000 52 48 1
285.000000 -277.000000 65030.000000 56 47 1
286.000000 -277.000000 65030.000000 58 49 1
287.000000 -277.000000 65030.000000 60 50 1
288.000000 -277.000000 65029.000000 56 55 1
289.000000 -277.000000 65029.000000 53 55 1
290.000000 -277.000000 65029.000000 51 57 1
291.000000 -277.000000 65028.000000 49 59 1
292.000000 -277.000000 65028.000000 50 59 1
293.000000 -277.000000 65027.000000 52 59 1
294.000000 -277.000000 65026.000000 49 65 1
295.000000 -277.000000 65026.000000 47 73 1
296.000000 -277.000000 65025.000000 51 77 1
297.000000 -277.000000 65025.000000 56 78 5
298.000000 -277.000000 65023.000000 63 79 9
299.000000 -277.000000 65023.000000 69 80 18
300.000000 -277.000000 65023.000000 72 78 28
301.000000 -277.000000 65022.000000 74 76 28
302.000000 -277.000000 65020.000000 75 76 28
303.000000 -277.000000 65019.000000 76 77 27
304.000000 -277.000000 65019.000000 72 74 26
305.000000 -277.000000 65018.000000 69 72 35
306.000000 -277.000000 65018.000000 72 73 44
307.000000 -277.000000 65017.000000 75 74 46
308.000000 -277.000000 65017.000000 77 79 49
309.000000 -277.000000 65016.000000 80 87 31
310.000000 -277.000000 65016.000000 80 86 13
311.000000 -277.000000 65016.000000 81 86 21
312.000000 -277.000000 65016.000000 81 83 30
313.000000 -277.000000 65016.000000 81 77 19
314.000000 -277.000000 65016.000000 82 77 9
315.000000 -277.000000 65016.000000 82 77 27
250.000000 -278.000000 65018.000000 27 50 1
251.000000 -278.000000 65020.000000 41 50 1
252.000000 -278.000000 65020.000000 47 50 1
253.000000 -278.000000 65020.000000 53 50 3
254.000000 -278.000000 65020.000000 46 51 5
255.000000 -278.000000 65022.000000 39 50 3
256.000000 -278.000000 65023.000000 35 50 1
257.000000 -278.000000 65023.000000 31 49 1
258.000000 -278.000000 65024.000000 30 48 1
259.000000 -278.000000 65024.000000 30 51 7
260.000000 -278.000000 65025.000000 34 56 13
261.000000 -278.000000 65026.000000 39 56 7
262.000000 -278.000000 65026.000000 45 56 1
263.000000 -278.000000 65026.000000 51 53 1
264.000000 -278.000000 65026.000000 44 49 2
265.000000 -278.000000 65027.000000 37 41 1
266.000000 -278.000000 65027.000000 40 47 1
267.000000 -278.000000 65028.000000 43 49 7
268.000000 -278.000000 65029.000000 43 51 14
269.000000 -278.000000 65029.000000 44 50 7
270.000000 -278.000000 65029.000000 47 49 1
271.000000 -278.000000 65030.000000 51 45 1
272.000000 -278.000000 65030.000000 46 54 1
273.000000 -278.000000 65032.000000 41 52 1
274.000000 -278.000000 65032.000000 41 51 2
275.000000 -278.000000 65032.000000 42 47 5
276.000000 -278.000000 65032.000000 40 45 9
277.000000 -278.000000 65032.000000 39 45 5
278.000000 -278.000000 65032.000000 42 46 1
279.000000 -278.000000 65032.000000 46 49 3
280.000000 -278.000000 65032.000000 46 52 6
281.000000 -278.000000 65032.000000 47 50 3
282.000000 -278.000000 65032.000000 49 49 1
283.000000 -278.000000 65032.000000 52 53 1
284.000000 -278.000000 65032.000000 56 57 1
285.000000 -278.000000 65031.000000 60 53 1
286.000000 -278.000000 65031.000000 59 49 1
287.000000 -278.000000 65030.000000 59 51 1
288.000000 -278.000000 65030.000000 56 53 1
289.000000 -278.000000 65030.000000 53 59 1
290.000000 -278.000000 65029.000000 47 65 1
291.000000 -278.000000 65029.000000 41 61 1
292.000000 -278.000000 65028.000000 45 58 1
293.000000 -278.000000 65027.000000 49 61 1
294.000000 -278.000000 65026.000000 49 65 1
295.000000 -278.000000 65026.000000 50 75 1
296.000000 -278.000000 65025.000000 52 78 1
297.000000 -278.000000 65023.000000 55 78 3
298.000000 -278.000000 65023.000000 61 80 5
299.000000 -278.000000 65023.000000 67 78 12
300.000000 -278.000000 65023.000000 68 77 20
301.000000 -278.000000 65022.000000 69 74 19
302.000000 -278.000000 65020.000000 69 73 18
303.000000 -278.000000 65019.000000 69 72 16
304.000000 -278.000000 65019.000000 64 72 14
305.000000 -278.000000 65018.000000 59 70 24
306.000000 -278.000000 65018.000000 64 69 35
307.000000 -278.000000 65017.000000 69 75 42
308.000000 -278.000000 65017.000000 73 74 50
309.000000 -278.000000 65016.000000 78 89 41
310.000000 -278.000000 65016.000000 79 92 32
311.000000 -278.000000 65016.000000 81 87 29
312.000000 -278.000000 65016.000000 80 82 27
313.000000 -278.000000 65016.000000 80 79 18
314.000000 -278.000000 65016.000000 79 76 9
315.000000 -278.000000 65016.000000 79 76 23
249.000000 -279.000000 65018.000000 14 7 1
250.000000 -279.000000 65019.000000 27 50 1
251.000000 -279.000000 65020.000000 40 51 1
252.000000 -279.000000 65020.000000 43 50 1
253.000000 -279.000000 65020.000000 47 50 1
254.000000 -279.000000 65021.000000 42 49 1
255.000000 -279.000000 65022.000000 38 49 1
256.000000 -279.000000 65023.000000 35 48 1
257.000000 -279.000000 65023.000000 31 44 1
258.000000 -279.000000 65023.000000 31 47 1
259.000000 -279.000000 65024.000000 31 49 13
260.000000 -279.000000 65024.000000 33 47 25
261.000000 -279.000000 65025.000000 36 45 13
262.000000 -279.000000 65025.000000 41 53 1
263.000000 -279.000000 65026.000000 45 54 2
264.000000 -279.000000 65026.000000 39 46 3
265.000000 -279.000000 65027.000000 33 41 2
266.000000 -279.000000 65028.000000 35 44 1
267.000000 -279.000000 65029.000000 37 47 14
268.000000 -279.000000 65029.000000 38 47 27
269.000000 -279.000000 65029.000000 40 47 14
270.000000 -279.000000 65029.000000 41 47 1
271.000000 -279.000000 65030.000000 42 47 1
272.000000 -279.000000 65031.000000 39 51 1
273.000000 -279.000000 65032.000000 35 55 1
274.000000 -279.000000 65032.000000 37 52 1
275.000000 -279.000000 65032.000000 38 49 9
276.000000 -279.000000 65032.000000 36 46 18
277.000000 -279.000000 65032.000000 34 48 9
278.000000 -279.000000 65032.000000 39 49 1
279.000000 -279.000000 65032.000000 44 51 1
280.000000 -279.000000 65032.000000 46 52 1
281.000000 -279.000000 65033.000000 48 50 1
282.000000 -279.000000 65032.000000 50 54 1
283.000000 -279.000000 65032.000000 52 59 1
284.000000 -279.000000 65032.000000 58 61 1
285.000000 -279.000000 65032.000000 64 63 1
286.000000 -279.000000 65032.000000 66 61 1
287.000000 -279.000000 65032.000000 69 59 1
288.000000 -279.000000 65032.000000 66 65 1
289.000000 -279.000000 65031.000000 63 71 1
290.000000 -279.000000 65030.000000 61 71 1
291.000000 -279.000000 65029.000000 60 71 1
292.000000 -279.000000 65029.000000 56 67 1
293.000000 -279.000000 65029.000000 52 64 1
294.000000 -279.000000 65026.000000 50 67 1
295.000000 -279.000000 65026.000000 48 77 1
296.000000 -279.000000 65025.000000 51 77 1
297.000000 -279.000000 65024.000000 55 78 1
298.000000 -279.000000 65023.000000 59 77 1
299.000000 -279.000000 65023.000000 64 76 6
300.000000 -279.000000 65023.000000 65 74 12
301.000000 -279.000000 65021.000000 67 73 10
302.000000 -279.000000 65020.000000 68 73 9
303.000000 -279.000000 65019.000000 70 74 5
304.000000 -279.000000 65019.000000 66 74 2
305.000000 -279.000000 65018.000000 63 77 14
306.000000 -279.000000 65018.000000 68 76 27
307.000000 -279.000000 65017.000000 72 76 39
308.000000 -279.000000 65017.000000 76 78 51
309.000000 -279.000000 65016.000000 80 91 51
310.000000 -279.000000 65016.000000 81 91 51
311.000000 -279.000000 65016.000000 82 88 38
312.000000 -279.000000 65016.000000 82 82 25
313.000000 -279.000000 65016.000000 82 81 17
314.000000 -279.000000 65016.000000 82 77 9
249.000000 -280.000000 65018.000000 16 5 1
250.000000 -280.000000 65018.000000 27 51 1
251.000000 -280.000000 65019.000000 39 52 1
252.000000 -280.000000 65020.000000 40 54 1
253.000000 -280.000000 65020.000000 41 54 1
254.000000 -280.000000 65021.000000 39 54 1
255.000000 -280.000000 65023.000000 38 51 1
256.000000 -280.000000 65023.000000 35 46 1
257.000000 -280.000000 65023.000000 32 46 1
258.000000 -280.000000 65023.000000 32 46 1
259.000000 -280.000000 65024.000000 32 46 7
260.000000 -280.000000 65024.000000 33 46 13
261.000000 -280.000000 65025.000000 34 48 7
262.000000 -280.000000 65026.000000 37 50 1
263.000000 -280.000000 65026.000000 40 54 1
264.000000 -280.000000 65026.000000 35 44 2
265.000000 -280.000000 65027.000000 30 41 1
266.000000 -280.000000 65027.000000 30 41 1
267.000000 -280.000000 65028.000000 31 40 7
268.000000 -280.000000 65029.000000 33 40 14
269.000000 -280.000000 65029.000000 36 40 7
270.000000 -280.000000 65029.000000 35 40 1
271.000000 -280.000000 65030.000000 34 43 1
272.000000 -280.000000 65031.000000 32 49 1
273.000000 -280.000000 65031.000000 30 51 1
274.000000 -280.000000 65032.000000 32 53 1
275.000000 -280.000000 65032.000000 35 47 5
276.000000 -280.000000 65032.000000 32 44 9
277.000000 -280.000000 65032.000000 30 48 5
278.000000 -280.000000 65032.000000 36 50 1
279.000000 -280.000000 65033.000000 42 51 1
280.000000 -280.000000 65033.000000 46 52 1
281.000000 -280.000000 65033.000000 50 52 1
282.000000 -280.000000 65032.000000 51 60 1
283.000000 -280.000000 65033.000000 53 60 1
284.000000 -280.000000 65032.000000 60 65 1
285.000000 -280.000000 65032.000000 68 69 6
286.000000 -280.000000 65032.000000 73 81 12
287.000000 -280.000000 65032.000000 79 79 6
288.000000 -280.000000 65032.000000 76 77 1
289.000000 -280.000000 65032.000000 73 78 1
290.000000 -280.000000 65030.000000 76 80 1
291.000000 -280.000000 65030.000000 80 73 1
292.000000 -280.000000 65029.000000 68 71 1
293.000000 -280.000000 65029.000000 56 64 1
294.000000 -280.000000 65029.000000 51 69 1
295.000000 -280.000000 65026.000000 47 72 1
296.000000 -280.000000 65026.000000 51 76 1
297.000000 -280.000000 65024.000000 55 76 1
298.000000 -280.000000 65023.000000 58 77 1
299.000000 -280.000000 65023.000000 62 74 4
300.000000 -280.000000 65023.000000 63 73 7
301.000000 -280.000000 65021.000000 65 74 7
302.000000 -280.000000 65020.000000 68 75 7
303.000000 -280.000000 65020.000000 71 75 5
304.000000 -280.000000 65019.000000 69 75 4
305.000000 -280.000000 65018.000000 68 75 13
306.000000 -280.000000 65018.000000 72 76 22
307.000000 -280.000000 65017.000000 76 76 29
308.000000 -280.000000 65017.000000 79 82 37
309.000000 -280.000000 65016.000000 82 86 37
310.000000 -280.000000 65016.000000 83 90 37
311.000000 -280.000000 65016.000000 84 87 30
312.000000 -280.000000 65015.000000 84 83 23
313.000000 -280.000000 65015.000000 85 79 14
314.000000 -280.000000 65015.000000 85 79 5
248.000000 -281.000000 65018.000000 9 2 1
249.000000 -281.000000 65018.000000 15 3 1
250.000000 -281.000000 65018.000000 31 47 2
251.000000 -281.000000 65019.000000 48 55 1
252.000000 -281.000000 65020.000000 44 55 1
253.000000 -281.000000 65020.000000 40 55 1
254.000000 -281.000000 65021.000000 37 54 2
255.000000 -281.000000 65023.000000 35 54 1
256.000000 -281.000000 65023.000000 29 53 1
257.000000 -281.000000 65023.000000 23 52 1
258.000000 -281.000000 65023.000000 26 51 1
259.000000 -281.000000 65024.000000 29 51 1
260.000000 -281.000000 65024.000000 32 51 1
261.000000 -281.000000 65025.000000 34 51 1
262.000000 -281.000000 65026.000000 38 52 1
263.000000 -281.000000 65026.000000 42 54 1
264.000000 -281.000000 65026.000000 35 44 1
265.000000 -281.000000 65027.000000 29 41 1
266.000000 -281.000000 65027.000000 27 39 1
267.000000 -281.000000 65028.000000 26 38 1
268.000000 -281.000000 65029.000000 30 38 1
269.000000 -281.000000 65029.000000 34 32 1
270.000000 -281.000000 65029.000000 33 37 1
271.000000 -281.000000 65031.000000 32 40 1
272.000000 -281.000000 65032.000000 32 40 1
273.000000 -281.000000 65031.000000 31 41 1
274.000000 -281.000000 65032.000000 35 43 1
275.000000 -281.000000 65032.000000 39 46 1
276.000000 -281.000000 65032.000000 36 43 1
277.000000 -281.000000 65032.000000 33 49 1
278.000000 -281.000000 65033.000000 37 51 1
279.000000 -281.000000 65033.000000 41 52 1
280.000000 -281.000000 65033.000000 45 53 1
281.000000 -281.000000 65033.000000 49 54 1
282.000000 -281.000000 65033.000000 48 57 1
283.000000 -281.000000 65033.000000 47 62 1
284.000000 -281.000000 65033.000000 57 66 1
285.000000 -281.000000 65032.000000 67 76 12
286.000000 -281.000000 65032.000000 72 79 24
287.000000 -281.000000 65032.000000 77 82 12
288.000000 -281.000000 65032.000000 74 82 1
289.000000 -281.000000 65032.000000 72 82 1
290.000000 -281.000000 65031.000000 74 81 1
291.000000 -281.000000 65030.000000 76 76 1
292.000000 -281.000000 65029.000000 67 72 1
293.000000 -281.000000 65029.000000 57 65 1
294.000000 -281.000000 65029.000000 53 67 1
295.000000 -281.000000 65026.000000 50 69 1
296.000000 -281.000000 65026.000000 51 76 1
297.000000 -281.000000 65025.000000 53 76 1
298.000000 -281.000000 65024.000000 55 74 1
299.000000 -281.000000 65023.000000 57 72 1
300.000000 -281.000000 65023.000000 56 68 2
301.000000 -281.000000 65022.000000 56 65 3
302.000000 -281.000000 65021.000000 55 61 5
303.000000 -281.000000 65020.000000 54 58 6
304.000000 -281.000000 65019.000000 56 58 7
305.000000 -281.000000 65018.000000 59 58 12
306.000000 -281.000000 65018.000000 63 67 17
307.000000 -281.000000 65017.000000 68 76 20
308.000000 -281.000000 65017.000000 73 78 24
309.000000 -281.000000 65016.000000 78 80 23
310.000000 -281.000000 65016.000000 80 83 23
311.000000 -281.000000 65016.000000 82 86 22
312.000000 -281.000000 65015.000000 83 81 21
313.000000 -281.000000 65015.000000 85 78 11
314.000000 -281.000000 65015.000000 84 78 2
248.000000 -282.000000 65018.000000 9 3 1
249.000000 -282.000000 65017.000000 15 2 1
250.000000 -282.000000 65018.000000 36 44 1
251.000000 -282.000000 65019.000000 57 60 1
252.000000 -282.000000 65020.000000 48 57 1
253.000000 -282.000000 65020.000000 39 57 1
254.000000 -282.000000 65022.000000 35 57 1
255.000000 -282.000000 65023.000000 32 55 1
256.000000 -282.000000 65023.000000 23 54 1
257.000000 -282.000000 65023.000000 14 51 1
258.000000 -282.000000 65023.000000 20 50 1
259.000000 -282.000000 65024.000000 27 50 1
260.000000 -282.000000 65025.000000 31 54 1
261.000000 -282.000000 65025.000000 35 53 1
262.000000 -282.000000 65026.000000 39 53 1
263.000000 -282.000000 65026.000000 44 51 1
264.000000 -282.000000 65026.000000 36 45 1
265.000000 -282.000000 65027.000000 28 40 1
266.000000 -282.000000 65027.000000 25 35 1
267.000000 -282.000000 65029.000000 22 35 1
268.000000 -282.000000 65029.000000 27 36 1
269.000000 -282.000000 65029.000000 33 35 1
270.000000 -282.000000 65030.000000 32 34 1
271.000000 -282.000000 65031.000000 31 39 1
272.000000 -282.000000 65032.000000 32 39 1
273.000000 -282.000000 65032.000000 33 38 1
274.000000 -282.000000 65033.000000 38 47 1
275.000000 -282.000000 65033.000000 44 44 1
276.000000 -282.000000 65033.000000 40 42 1
277.000000 -282.000000 65033.000000 36 45 1
278.000000 -282.000000 65033.000000 38 52 1
279.000000 -282.000000 65034.000000 41 50 1
280.000000 -282.000000 65033.000000 44 48 1
281.000000 -282.000000 65033.000000 48 52 1
282.000000 -282.000000 65033.000000 45 54 1
283.000000 -282.000000 65033.000000 42 60 1
284.000000 -282.000000 65033.000000 54 67 1
285.000000 -282.000000 65032.000000 66 74 6
286.000000 -282.000000 65032.000000 71 78 12
287.000000 -282.000000 65032.000000 76 83 6
288.000000 -282.000000 65032.000000 73 83 1
289.000000 -282.000000 65032.000000 71 83 1
290.000000 -282.000000 65031.000000 72 83 1
291.000000 -282.000000 65031.000000 73 78 1
292.000000 -282.000000 65030.000000 66 74 1
293.000000 -282.000000 65029.000000 59 62 1
294.000000 -282.000000 65029.000000 56 65 1
295.000000 -282.000000 65026.000000 53 69 1
296.000000 -282.000000 65026.000000 52 77 1
297.000000 -282.000000 65025.000000 51 76 1
298.000000 -282.000000 65024.000000 52 73 1
299.000000 -282.000000 65023.000000 53 65 2
300.000000 -282.000000 65023.000000 50 58 3
301.000000 -282.000000 65022.000000 47 54 4
302.000000 -282.000000 65020.000000 42 50 6
303.000000 -282.000000 65020.000000 37 49 7
304.000000 -282.000000 65019.000000 43 49 8
305.000000 -282.000000 65019.000000 50 47 16
306.000000 -282.000000 65018.000000 55 45 25
307.000000 -282.000000 65017.000000 60 61 28
308.000000 -282.000000 65017.000000 67 76 31
309.000000 -282.000000 65016.000000 74 79 25
310.000000 -282.000000 65016.000000 77 82 19
311.000000 -282.000000 65016.000000 80 81 15
312.000000 -282.000000 65015.000000 83 80 11
313.000000 -282.000000 65015.000000 86 78 15
314.000000 -282.000000 65015.000000 84 78 19
249.000000 -283.000000 65017.000000 13 1 1
250.000000 -283.000000 65018.000000 31 42 1
251.000000 -283.000000 65019.000000 49 66 1
252.000000 -283.000000 65020.000000 43 58 1
253.000000 -283.000000 65021.000000 38 48 1
254.000000 -283.000000 65022.000000 37 47 1
255.000000 -283.000000 65023.000000 36 46 1
256.000000 -283.000000 65023.000000 28 48 1
257.000000 -283.000000 65023.000000 20 50 1
258.000000 -283.000000 65024.000000 24 49 1
259.000000 -283.000000 65024.000000 27 49 1
260.000000 -283.000000 65025.000000 32 55 1
261.000000 -283.000000 65026.000000 37 57 1
262.000000 -283.000000 65026.000000 38 54 1
263.000000 -283.000000 65026.000000 39 49 1
264.000000 -283.000000 65026.000000 32 45 1
265.000000 -283.000000 65027.000000 26 30 1
266.000000 -283.000000 65027.000000 26 30 1
267.000000 -283.000000 65029.000000 26 30 1
268.000000 -283.000000 65029.000000 28 28 1
269.000000 -283.000000 65029.000000 31 27 1
270.000000 -283.000000 65029.000000 28 33 1
271.000000 -283.000000 65032.000000 24 39 1
272.000000 -283.000000 65032.000000 29 37 2
273.000000 -283.000000 65033.000000 33 36 1
274.000000 -283.000000 65033.000000 35 34 1
275.000000 -283.000000 65034.000000 37 32 1
276.000000 -283.000000 65034.000000 35 36 1
277.000000 -283.000000 65034.000000 33 41 1
278.000000 -283.000000 65034.000000 36 44 1
279.000000 -283.000000 65034.000000 39 48 1
280.000000 -283.000000 65034.000000 43 49 2
281.000000 -283.000000 65033.000000 47 51 1
282.000000 -283.000000 65033.000000 47 54 1
283.000000 -283.000000 65033.000000 47 59 1
284.000000 -283.000000 65033.000000 57 67 1
285.000000 -283.000000 65032.000000 66 72 1
286.000000 -283.000000 65032.000000 72 79 1
287.000000 -283.000000 65032.000000 77 84 1
288.000000 -283.000000 65032.000000 76 84 1
289.000000 -283.000000 65032.000000 76 85 1
290.000000 -283.000000 65031.000000 74 83 2
291.000000 -283.000000 65031.000000 73 80 1
292.000000 -283.000000 65030.000000 66 71 1
293.000000 -283.000000 65029.000000 60 59 1
294.000000 -283.000000 65029.000000 55 64 1
295.000000 -283.000000 65026.000000 51 69 1
296.000000 -283.000000 65026.000000 51 77 1
297.000000 -283.000000 65025.000000 50 76 1
298.000000 -283.000000 65025.000000 53 68 2
299.000000 -283.000000 65024.000000 55 59 3
300.000000 -283.000000 65024.000000 52 54 4
301.000000 -283.000000 65022.000000 49 50 5
302.000000 -283.000000 65020.000000 45 50 7
303.000000 -283.000000 65020.000000 42 50 8
304.000000 -283.000000 65019.000000 45 47 9
305.000000 -283.000000 65019.000000 47 46 21
306.000000 -283.000000 65019.000000 53 45 34
307.000000 -283.000000 65017.000000 59 47 36
308.000000 -283.000000 65017.000000 67 71 39
309.000000 -283.000000 65017.000000 75 78 27
310.000000 -283.000000 65016.000000 78 83 15
311.000000 -283.000000 65015.000000 81 83 8
312.000000 -283.000000 65014.000000 83 81 2
313.000000 -283.000000 65013.000000 84 79 19
314.000000 -283.000000 65013.000000 84 77 37
249.000000 -284.000000 65017.000000 12 1 2
250.000000 -284.000000 65018.000000 26 41 1
251.000000 -284.000000 65020.000000 41 64 1
252.000000 -284.000000 65020.000000 39 59 1
253.000000 -284.000000 65021.000000 38 51 1
254.000000 -284.000000 65022.000000 39 43 1
255.000000 -284.000000 65023.000000 41 47 1
256.000000 -284.000000 65023.000000 34 46 1
257.000000 -284.000000 65023.000000 27 47 1
258.000000 -284.000000 65024.000000 27 48 1
259.000000 -284.000000 65024.000000 28 50 1
260.000000 -284.000000 65025.000000 33 56 1
261.000000 -284.000000 65026.000000 39 55 1
262.000000 -284.000000 65026.000000 36 55 1
263.000000 -284.000000 65026.000000 34 49 1
264.000000 -284.000000 65026.000000 29 45 1
265.000000 -284.000000 65026.000000 25 34 4
266.000000 -284.000000 65027.000000 27 27 7
267.000000 -284.000000 65027.000000 30 28 4
268.000000 -284.000000 65029.000000 30 30 1
269.000000 -284.000000 65029.000000 30 31 1
270.000000 -284.000000 65029.000000 24 33 1
271.000000 -284.000000 65030.000000 18 39 1
272.000000 -284.000000 65032.000000 26 44 1
273.000000 -284.000000 65033.000000 34 38 1
274.000000 -284.000000 65033.000000 32 34 1
275.000000 -284.000000 65034.000000 30 33 1
276.000000 -284.000000 65034.000000 30 28 1
277.000000 -284.000000 65034.000000 30 37 1
278.000000 -284.000000 65033.000000 33 41 1
279.000000 -284.000000 65034.000000 37 48 12
280.000000 -284.000000 65033.000000 41 55 23
281.000000 -284.000000 65033.000000 46 53 14
282.000000 -284.000000 65033.000000 49 55 5
283.000000 -284.000000 65033.000000 53 59 4
284.000000 -284.000000 65033.000000 60 68 4
285.000000 -284.000000 65032.000000 67 73 3
286.000000 -284.000000 65032.000000 73 81 2
287.000000 -284.000000 65032.000000 79 82 8
288.000000 -284.000000 65032.000000 80 85 15
289.000000 -284.000000 65032.000000 81 84 9
290.000000 -284.000000 65031.000000 77 83 3
291.000000 -284.000000 65030.000000 74 77 2
292.000000 -284.000000 65029.000000 67 69 2
293.000000 -284.000000 65028.000000 61 66 1
294.000000 -284.000000 65026.000000 55 63 1
295.000000 -284.000000 65026.000000 50 71 1
296.000000 -284.000000 65026.000000 50 77 1
297.000000 -284.000000 65025.000000 50 76 1
298.000000 -284.000000 65025.000000 54 63 1
299.000000 -284.000000 65024.000000 58 56 2
300.000000 -284.000000 65023.000000 54 50 2
301.000000 -284.000000 65022.000000 51 50 13
302.000000 -284.000000 65020.000000 49 50 24
303.000000 -284.000000 65020.000000 48 48 15
304.000000 -284.000000 65020.000000 46 45 7
305.000000 -284.000000 65019.000000 45 46 21
306.000000 -284.000000 65019.000000 52 44 36
307.000000 -284.000000 65018.000000 59 53 40
308.000000 -284.000000 65017.000000 67 66 44
309.000000 -284.000000 65017.000000 76 80 40
310.000000 -284.000000 65015.000000 79 85 35
311.000000 -284.000000 65014.000000 83 84 18
312.000000 -284.000000 65013.000000 83 84 1
313.000000 -284.000000 65013.000000 83 80 24
314.000000 -284.000000 65013.000000 84 77 47
249.000000 -285.000000 65017.000000 22 1 4
250.000000 -285.000000 65018.000000 31 46 1
251.000000 -285.000000 65019.000000 41 62 1
252.000000 -285.000000 65020.000000 38 59 2
253.000000 -285.000000 65022.000000 36 54 1
254.000000 -285.000000 65023.000000 36 51 1
255.000000 -285.000000 65023.000000 36 48 1
256.000000 -285.000000 65023.000000 31 50 1
257.000000 -285.000000 65023.000000 26 54 1
258.000000 -285.000000 65024.000000 26 51 1
259.000000 -285.000000 65024.000000 27 51 1
260.000000 -285.000000 65025.000000 35 52 1
261.000000 -285.000000 65026.000000 42 54 1
262.000000 -285.000000 65026.000000 38 55 1
263.000000 -285.000000 65026.000000 34 49 1
264.000000 -285.000000 65026.000000 29 45 1
265.000000 -285.000000 65027.000000 23 38 7
266.000000 -285.000000 65028.000000 27 36 13
267.000000 -285.000000 65029.000000 31 34 7
268.000000 -285.000000 65029.000000 29 32 1
269.000000 -285.000000 65029.000000 28 34 1
270.000000 -285.000000 65030.000000 26 36 2
271.000000 -285.000000 65030.000000 24 39 1
272.000000 -285.000000 65032.000000 29 39 1
273.000000 -285.000000 65032.000000 34 40 1
274.000000 -285.000000 65032.000000 33 37 1
275.000000 -285.000000 65033.000000 32 35 1
276.000000 -285.000000 65033.000000 30 34 1
277.000000 -285.000000 65033.000000 29 34 1
278.000000 -285.000000 65033.000000 31 42 1
279.000000 -285.000000 65033.000000 33 49 23
280.000000 -285.000000 65033.000000 39 54 45
281.000000 -285.000000 65033.000000 45 51 27
282.000000 -285.000000 65034.000000 47 54 10
283.000000 -285.000000 65033.000000 50 59 8
284.000000 -285.000000 65033.000000 57 65 7
285.000000 -285.000000 65032.000000 65 75 5
286.000000 -285.000000 65032.000000 71 80 3
287.000000 -285.000000 65032.000000 77 80 16
288.000000 -285.000000 65032.000000 80 81 30
289.000000 -285.000000 65032.000000 84 82 17
290.000000 -285.000000 65031.000000 80 81 4
291.000000 -285.000000 65030.000000 75 75 3
292.000000 -285.000000 65028.000000 68 72 3
293.000000 -285.000000 65027.000000 61 70 2
294.000000 -285.000000 65026.000000 55 72 1
295.000000 -285.000000 65026.000000 49 74 1
296.000000 -285.000000 65026.000000 48 77 1
297.000000 -285.000000 65025.000000 47 76 1
298.000000 -285.000000 65025.000000 50 67 1
299.000000 -285.000000 65024.000000 52 54 1
300.000000 -285.000000 65023.000000 50 49 1
301.000000 -285.000000 65022.000000 48 49 21
302.000000 -285.000000 65020.000000 46 48 42
303.000000 -285.000000 65020.000000 44 47 23
304.000000 -285.000000 65020.000000 39 46 5
305.000000 -285.000000 65020.000000 33 46 21
306.000000 -285.000000 65019.000000 43 52 38
307.000000 -285.000000 65019.000000 54 60 44
308.000000 -285.000000 65017.000000 63 67 50
309.000000 -285.000000 65017.000000 73 82 53
310.000000 -285.000000 65017.000000 77 85 56
311.000000 -285.000000 65014.000000 81 89 28
312.000000 -285.000000 65013.000000 81 84 1
313.000000 -285.000000 65012.000000 82 82 29
314.000000 -285.000000 65012.000000 83 78 58
249.000000 -286.000000 65017.000000 32 31 2
250.000000 -286.000000 65018.000000 36 52 1
251.000000 -286.000000 65020.000000 41 55 1
252.000000 -286.000000 65020.000000 37 59 1
253.000000 -286.000000 65022.000000 34 55 1
254.000000 -286.000000 65022.000000 33 54 1
255.000000 -286.000000 65023.000000 32 53 1
256.000000 -286.000000 65023.000000 28 52 1
257.000000 -286.000000 65023.000000 25 51 1
258.000000 -286.000000 65024.000000 26 51 1
259.000000 -286.000000 65025.000000 27 51 1
260.000000 -286.000000 65026.000000 36 52 2
261.000000 -286.000000 65026.000000 46 55 1
262.000000 -286.000000 65026.000000 40 55 1
263.000000 -286.000000 65026.000000 35 49 1
264.000000 -286.000000 65026.000000 28 45 1
265.000000 -286.000000 65027.000000 22 40 4
266.000000 -286.000000 65027.000000 27 39 7
267.000000 -286.000000 65029.000000 32 36 4
268.000000 -286.000000 65029.000000 29 30 1
269.000000 -286.000000 65029.000000 26 34 1
270.000000 -286.000000 65030.000000 28 39 1
271.000000 -286.000000 65031.000000 31 39 1
272.000000 -286.000000 65031.000000 33 40 1
273.000000 -286.000000 65032.000000 35 40 8
274.000000 -286.000000 65032.000000 34 44 16
275.000000 -286.000000 65033.000000 34 42 8
276.000000 -286.000000 65033.000000 31 41 1
277.000000 -286.000000 65034.000000 28 42 1
278.000000 -286.000000 65033.000000 29 44 1
279.000000 -286.000000 65033.000000 30 49 12
280.000000 -286.000000 65033.000000 37 54 23
281.000000 -286.000000 65033.000000 44 54 14
282.000000 -286.000000 65034.000000 46 54 5
283.000000 -286.000000 65033.000000 48 58 4
284.000000 -286.000000 65033.000000 55 63 4
285.000000 -286.000000 65032.000000 63 69 4
286.000000 -286.000000 65032.000000 69 80 5
287.000000 -286.000000 65032.000000 75 79 10
288.000000 -286.000000 65032.000000 81 79 15
289.000000 -286.000000 65032.000000 88 79 9
290.000000 -286.000000 65031.000000 82 79 2
291.000000 -286.000000 65030.000000 77 77 2
292.000000 -286.000000 65029.000000 69 75 2
293.000000 -286.000000 65029.000000 62 74 1
294.000000 -286.000000 65027.000000 55 74 1
295.000000 -286.000000 65026.000000 49 74 3
296.000000 -286.000000 65026.000000 47 78 6
297.000000 -286.000000 65025.000000 45 77 3
298.000000 -286.000000 65025.000000 46 72 1
299.000000 -286.000000 65024.000000 47 58 2
300.000000 -286.000000 65023.000000 46 48 4
301.000000 -286.000000 65022.000000 46 47 14
302.000000 -286.000000 65021.000000 43 46 24
303.000000 -286.000000 65020.000000 41 47 13
304.000000 -286.000000 65020.000000 31 51 3
305.000000 -286.000000 65020.000000 22 49 15
306.000000 -286.000000 65019.000000 35 58 27
307.000000 -286.000000 65019.000000 49 62 32
308.000000 -286.000000 65018.000000 59 68 37
309.000000 -286.000000 65018.000000 70 87 33
310.000000 -286.000000 65013.000000 75 98 29
311.000000 -286.000000 65013.000000 80 88 15
312.000000 -286.000000 65013.000000 80 85 1
313.000000 -286.000000 65012.000000 81 81 18
314.000000 -286.000000 65012.000000 83 80 35
249.000000 -287.000000 65017.000000 38 53 1
250.000000 -287.000000 65018.000000 39 53 1
251.000000 -287.000000 65019.000000 40 53 1
252.000000 -287.000000 65020.000000 37 59 1
253.000000 -287.000000 65022.000000 34 57 1
254.000000 -287.000000 65022.000000 32 54 1
255.000000 -287.000000 65023.000000 30 51 1
256.000000 -287.000000 65023.000000 27 51 1
257.000000 -287.000000 65024.000000 23 51 1
258.000000 -287.000000 65025.000000 25 52 1
259.000000 -287.000000 65025.000000 26 53 2
260.000000 -287.000000 65026.000000 34 54 4
261.000000 -287.000000 65026.000000 41 56 2
262.000000 -287.000000 65026.000000 37 57 1
263.000000 -287.000000 65026.000000 33 50 1
264.000000 -287.000000 65026.000000 28 45 1
265.000000 -287.000000 65027.000000 24 42 1
266.000000 -287.000000 65027.000000 26 40 1
267.000000 -287.000000 65029.000000 29 39 1
268.000000 -287.000000 65029.000000 26 42 1
269.000000 -287.000000 65029.000000 22 45 1
270.000000 -287.000000 65030.000000 26 42 1
271.000000 -287.000000 65031.000000 29 42 1
272.000000 -287.000000 65032.000000 29 41 1
273.000000 -287.000000 65032.000000 29 41 16
274.000000 -287.000000 65032.000000 29 44 32
275.000000 -287.000000 65033.000000 28 42 16
276.000000 -287.000000 65033.000000 24 40 1
277.000000 -287.000000 65034.000000 20 39 1
278.000000 -287.000000 65034.000000 21 38 1
279.000000 -287.000000 65033.000000 23 38 1
280.000000 -287.000000 65033.000000 29 43 1
281.000000 -287.000000 65033.000000 35 48 1
282.000000 -287.000000 65034.000000 38 48 1
283.000000 -287.000000 65033.000000 41 49 1
284.000000 -287.000000 65033.000000 49 56 1
285.000000 -287.000000 65032.000000 56 64 4
286.000000 -287.000000 65032.000000 63 73 7
287.000000 -287.000000 65032.000000 70 82 4
288.000000 -287.000000 65032.000000 76 78 1
289.000000 -287.000000 65032.000000 83 77 1
290.000000 -287.000000 65030.000000 79 78 1
291.000000 -287.000000 65029.000000 76 79 1
292.000000 -287.000000 65028.000000 68 77 1
293.000000 -287.000000 65029.000000 60 76 1
294.000000 -287.000000 65026.000000 51 75 1
295.000000 -287.000000 65026.000000 43 74 6
296.000000 -287.000000 65026.000000 45 76 11
297.000000 -287.000000 65026.000000 47 79 6
298.000000 -287.000000 65025.000000 47 73 1
299.000000 -287.000000 65024.000000 47 62 4
300.000000 -287.000000 65023.000000 46 57 7
301.000000 -287.000000 65022.000000 46 52 7
302.000000 -287.000000 65021.000000 44 49 7
303.000000 -287.000000 65020.000000 43 47 4
304.000000 -287.000000 65020.000000 37 50 1
305.000000 -287.000000 65020.000000 31 52 9
306.000000 -287.000000 65020.000000 42 56 17
307.000000 -287.000000 65020.000000 52 64 21
308.000000 -287.000000 65019.000000 62 75 25
309.000000 -287.000000 65017.000000 71 92 13
310.000000 -287.000000 65017.000000 76 93 2
311.000000 -287.000000 65017.000000 80 88 1
312.000000 -287.000000 65010.000000 81 84 1
313.000000 -287.000000 65010.000000 82 80 6
314.000000 -287.000000 65010.000000 85 78 12
249.000000 -288.000000 65017.000000 44 49 5
250.000000 -288.000000 65018.000000 41 51 1
251.000000 -288.000000 65019.000000 39 56 1
252.000000 -288.000000 65021.000000 37 59 1
253.000000 -288.000000 65022.000000 35 58 1
254.000000 -288.000000 65023.000000 32 54 1
255.000000 -288.000000 65023.000000 29 51 1
256.000000 -288.000000 65023.000000 25 50 1
257.000000 -288.000000 65024.000000 22 50 1
258.000000 -288.000000 65025.000000 24 48 1
259.000000 -288.000000 65025.000000 26 51 1
260.000000 -288.000000 65026.000000 31 56 2
261.000000 -288.000000 65026.000000 37 54 1
262.000000 -288.000000 65026.000000 34 60 1
263.000000 -288.000000 65026.000000 31 53 1
264.000000 -288.000000 65026.000000 28 46 1
265.000000 -288.000000 65027.000000 26 36 1
266.000000 -288.000000 65027.000000 26 32 1
267.000000 -288.000000 65029.000000 27 37 5
268.000000 -288.000000 65029.000000 23 39 9
269.000000 -288.000000 65029.000000 19 40 5
270.000000 -288.000000 65030.000000 23 42 1
271.000000 -288.000000 65032.000000 28 39 1
272.000000 -288.000000 65032.000000 26 34 1
273.000000 -288.000000 65032.000000 24 38 8
274.000000 -288.000000 65033.000000 23 44 16
275.000000 -288.000000 65033.000000 23 39 8
276.000000 -288.000000 65033.000000 17 38 1
277.000000 -288.000000 65034.000000 12 38 1
278.000000 -288.000000 65034.000000 14 33 1
279.000000 -288.000000 65034.000000 17 40 1
280.000000 -288.000000 65033.000000 21 39 1
281.000000 -288.000000 65033.000000 26 31 1
282.000000 -288.000000 65034.000000 30 24 1
283.000000 -288.000000 65034.000000 35 41 1
284.000000 -288.000000 65034.000000 42 49 1
285.000000 -288.000000 65034.000000 50 51 3
286.000000 -288.000000 65033.000000 57 53 5
287.000000 -288.000000 65033.000000 65 75 3
288.000000 -288.000000 65033.000000 71 77 1
289.000000 -288.000000 65032.000000 78 79 1
290.000000 -288.000000 65030.000000 77 83 1
291.000000 -288.000000 65030.000000 76 78 1
292.000000 -288.000000 65029.000000 67 78 1
293.000000 -288.000000 65028.000000 59 72 1
294.000000 -288.000000 65027.000000 48 68 1
295.000000 -288.000000 65027.000000 37 72 3
296.000000 -288.000000 65026.000000 43 75 6
297.000000 -288.000000 65026.000000 49 75 3
298.000000 -288.000000 65025.000000 48 75 1
299.000000 -288.000000 65024.000000 47 67 14
300.000000 -288.000000 65023.000000 47 64 28
301.000000 -288.000000 65023.000000 47 49 19
302.000000 -288.000000 65021.000000 46 54 10
303.000000 -288.000000 65021.000000 45 48 6
304.000000 -288.000000 65020.000000 43 50 2
