ply
    format ascii 1.0
    element vertex 10871
    property float x
    property float y
    property float z
    property uchar red
    property uchar green
    property uchar blue
    end_header
304.000000 -351.000000 65029.000000 31 64 1
305.000000 -351.000000 65028.000000 32 61 1
306.000000 -351.000000 65023.000000 28 63 1
307.000000 -351.000000 65023.000000 24 66 1
308.000000 -351.000000 65022.000000 33 66 1
309.000000 -351.000000 65022.000000 43 72 2
310.000000 -351.000000 65022.000000 58 69 4
244.000000 -352.000000 65027.000000 40 34 1
245.000000 -352.000000 65028.000000 27 30 1
246.000000 -352.000000 65028.000000 20 28 1
247.000000 -352.000000 65029.000000 14 29 1
248.000000 -352.000000 65029.000000 9 28 1
249.000000 -352.000000 65031.000000 4 29 1
250.000000 -352.000000 65032.000000 4 31 1
251.000000 -352.000000 65034.000000 4 32 1
252.000000 -352.000000 65035.000000 4 33 1
253.000000 -352.000000 65035.000000 5 26 1
254.000000 -352.000000 65037.000000 7 26 1
255.000000 -352.000000 65037.000000 10 35 1
256.000000 -352.000000 65038.000000 7 34 1
257.000000 -352.000000 65039.000000 4 32 1
258.000000 -352.000000 65040.000000 5 31 1
259.000000 -352.000000 65040.000000 6 32 1
260.000000 -352.000000 65040.000000 5 34 1
261.000000 -352.000000 65041.000000 4 30 1
262.000000 -352.000000 65041.000000 5 26 1
263.000000 -352.000000 65041.000000 7 25 1
264.000000 -352.000000 65041.000000 8 25 1
265.000000 -352.000000 65041.000000 10 25 1
266.000000 -352.000000 65041.000000 9 25 1
267.000000 -352.000000 65043.000000 8 26 1
268.000000 -352.000000 65043.000000 8 27 1
269.000000 -352.000000 65043.000000 8 27 1
270.000000 -352.000000 65043.000000 6 27 1
271.000000 -352.000000 65043.000000 4 28 1
272.000000 -352.000000 65043.000000 6 20 1
273.000000 -352.000000 65043.000000 8 33 1
274.000000 -352.000000 65043.000000 7 39 1
275.000000 -352.000000 65043.000000 7 28 1
276.000000 -352.000000 65043.000000 8 30 1
277.000000 -352.000000 65043.000000 9 32 1
278.000000 -352.000000 65043.000000 9 37 1
279.000000 -352.000000 65042.000000 9 36 1
280.000000 -352.000000 65042.000000 8 36 1
281.000000 -352.000000 65042.000000 7 35 1
282.000000 -352.000000 65042.000000 6 36 1
283.000000 -352.000000 65042.000000 5 42 1
284.000000 -352.000000 65042.000000 7 42 1
285.000000 -352.000000 65042.000000 9 36 1
286.000000 -352.000000 65041.000000 17 34 1
287.000000 -352.000000 65041.000000 26 37 1
288.000000 -352.000000 65040.000000 19 41 1
289.000000 -352.000000 65040.000000 12 43 1
290.000000 -352.000000 65040.000000 12 42 1
291.000000 -352.000000 65039.000000 12 49 1
292.000000 -352.000000 65038.000000 7 43 1
293.000000 -352.000000 65037.000000 2 44 1
294.000000 -352.000000 65036.000000 7 45 1
295.000000 -352.000000 65036.000000 12 53 1
296.000000 -352.000000 65035.000000 9 50 1
297.000000 -352.000000 65035.000000 6 51 1
298.000000 -352.000000 65034.000000 11 53 1
299.000000 -352.000000 65033.000000 16 53 1
300.000000 -352.000000 65032.000000 13 54 1
301.000000 -352.000000 65031.000000 10 54 1
302.000000 -352.000000 65029.000000 18 54 1
303.000000 -352.000000 65029.000000 26 59 1
304.000000 -352.000000 65029.000000 26 64 1
305.000000 -352.000000 65028.000000 27 62 1
306.000000 -352.000000 65024.000000 21 61 1
307.000000 -352.000000 65024.000000 15 63 1
308.000000 -352.000000 65024.000000 26 66 1
309.000000 -352.000000 65024.000000 38 71 2
310.000000 -352.000000 65022.000000 58 70 3
244.000000 -353.000000 65027.000000 40 34 1
245.000000 -353.000000 65029.000000 26 30 1
246.000000 -353.000000 65029.000000 20 30 1
247.000000 -353.000000 65029.000000 14 30 1
248.000000 -353.000000 65030.000000 10 28 1
249.000000 -353.000000 65031.000000 7 34 1
250.000000 -353.000000 65032.000000 7 32 1
251.000000 -353.000000 65035.000000 7 26 1
252.000000 -353.000000 65035.000000 6 26 1
253.000000 -353.000000 65036.000000 6 26 1
254.000000 -353.000000 65037.000000 9 28 1
255.000000 -353.000000 65038.000000 12 36 1
256.000000 -353.000000 65038.000000 8 36 1
257.000000 -353.000000 65039.000000 4 27 1
258.000000 -353.000000 65040.000000 4 32 1
259.000000 -353.000000 65040.000000 4 34 1
260.000000 -353.000000 65040.000000 4 30 1
261.000000 -353.000000 65041.000000 3 25 1
262.000000 -353.000000 65041.000000 4 26 1
263.000000 -353.000000 65041.000000 5 21 1
264.000000 -353.000000 65041.000000 6 21 1
265.000000 -353.000000 65041.000000 8 22 1
266.000000 -353.000000 65041.000000 7 23 1
267.000000 -353.000000 65042.000000 6 21 1
268.000000 -353.000000 65043.000000 7 22 1
269.000000 -353.000000 65043.000000 8 23 1
270.000000 -353.000000 65043.000000 7 27 1
271.000000 -353.000000 65043.000000 6 26 1
272.000000 -353.000000 65043.000000 7 32 1
273.000000 -353.000000 65043.000000 8 38 1
274.000000 -353.000000 65043.000000 7 36 1
275.000000 -353.000000 65043.000000 7 27 1
276.000000 -353.000000 65043.000000 6 28 1
277.000000 -353.000000 65043.000000 6 33 1
278.000000 -353.000000 65043.000000 7 32 1
279.000000 -353.000000 65042.000000 9 31 1
280.000000 -353.000000 65042.000000 9 32 1
281.000000 -353.000000 65042.000000 9 34 1
282.000000 -353.000000 65042.000000 9 37 1
283.000000 -353.000000 65042.000000 9 44 1
284.000000 -353.000000 65042.000000 9 41 1
285.000000 -353.000000 65041.000000 10 37 1
286.000000 -353.000000 65041.000000 15 34 1
287.000000 -353.000000 65041.000000 20 39 1
288.000000 -353.000000 65041.000000 17 42 1
289.000000 -353.000000 65041.000000 14 45 1
290.000000 -353.000000 65040.000000 13 47 1
291.000000 -353.000000 65039.000000 13 49 1
292.000000 -353.000000 65038.000000 12 50 1
293.000000 -353.000000 65036.000000 12 51 1
294.000000 -353.000000 65036.000000 16 53 1
295.000000 -353.000000 65035.000000 20 55 1
296.000000 -353.000000 65035.000000 19 53 1
297.000000 -353.000000 65035.000000 17 52 1
298.000000 -353.000000 65034.000000 21 49 1
299.000000 -353.000000 65033.000000 24 47 1
300.000000 -353.000000 65032.000000 27 56 1
301.000000 -353.000000 65031.000000 29 58 1
302.000000 -353.000000 65030.000000 31 65 1
303.000000 -353.000000 65030.000000 33 72 1
304.000000 -353.000000 65029.000000 35 72 1
305.000000 -353.000000 65029.000000 37 72 1
306.000000 -353.000000 65029.000000 38 72 1
307.000000 -353.000000 65029.000000 39 73 1
308.000000 -353.000000 65024.000000 43 71 1
309.000000 -353.000000 65024.000000 48 70 2
244.000000 -354.000000 65026.000000 40 34 1
245.000000 -354.000000 65028.000000 25 34 1
246.000000 -354.000000 65028.000000 20 35 1
247.000000 -354.000000 65029.000000 15 31 1
248.000000 -354.000000 65029.000000 12 28 1
249.000000 -354.000000 65031.000000 10 34 1
250.000000 -354.000000 65032.000000 10 33 1
251.000000 -354.000000 65035.000000 10 31 1
252.000000 -354.000000 65035.000000 8 30 1
253.000000 -354.000000 65036.000000 7 30 1
254.000000 -354.000000 65037.000000 10 31 1
255.000000 -354.000000 65038.000000 14 35 1
256.000000 -354.000000 65038.000000 9 38 1
257.000000 -354.000000 65039.000000 5 36 1
258.000000 -354.000000 65040.000000 4 34 1
259.000000 -354.000000 65040.000000 3 35 1
260.000000 -354.000000 65040.000000 3 27 1
261.000000 -354.000000 65041.000000 3 27 1
262.000000 -354.000000 65041.000000 3 27 1
263.000000 -354.000000 65041.000000 3 27 1
264.000000 -354.000000 65041.000000 4 28 1
265.000000 -354.000000 65041.000000 6 25 1
266.000000 -354.000000 65041.000000 5 24 1
267.000000 -354.000000 65042.000000 5 23 1
268.000000 -354.000000 65043.000000 6 22 1
269.000000 -354.000000 65043.000000 8 24 1
270.000000 -354.000000 65043.000000 8 27 1
271.000000 -354.000000 65043.000000 8 30 1
272.000000 -354.000000 65043.000000 8 36 1
273.000000 -354.000000 65043.000000 9 35 1
274.000000 -354.000000 65043.000000 8 33 1
275.000000 -354.000000 65043.000000 7 29 1
276.000000 -354.000000 65043.000000 5 27 1
277.000000 -354.000000 65043.000000 3 27 1
278.000000 -354.000000 65043.000000 6 27 1
279.000000 -354.000000 65043.000000 9 26 1
280.000000 -354.000000 65042.000000 10 26 1
281.000000 -354.000000 65042.000000 12 35 1
282.000000 -354.000000 65042.000000 12 39 1
283.000000 -354.000000 65042.000000 13 40 1
284.000000 -354.000000 65042.000000 12 41 1
285.000000 -354.000000 65042.000000 12 38 1
286.000000 -354.000000 65041.000000 13 35 1
287.000000 -354.000000 65042.000000 14 39 1
288.000000 -354.000000 65042.000000 15 43 1
289.000000 -354.000000 65041.000000 17 49 1
290.000000 -354.000000 65041.000000 15 53 1
291.000000 -354.000000 65040.000000 14 56 1
292.000000 -354.000000 65038.000000 18 60 1
293.000000 -354.000000 65038.000000 23 60 1
294.000000 -354.000000 65037.000000 26 60 1
295.000000 -354.000000 65037.000000 29 61 1
296.000000 -354.000000 65036.000000 29 62 1
297.000000 -354.000000 65035.000000 29 54 1
298.000000 -354.000000 65035.000000 31 47 1
299.000000 -354.000000 65034.000000 33 56 1
300.000000 -354.000000 65032.000000 41 65 1
301.000000 -354.000000 65031.000000 49 70 1
302.000000 -354.000000 65031.000000 45 75 1
303.000000 -354.000000 65030.000000 41 77 1
304.000000 -354.000000 65030.000000 44 79 1
305.000000 -354.000000 65030.000000 48 79 1
306.000000 -354.000000 65029.000000 55 79 2
307.000000 -354.000000 65029.000000 63 79 1
244.000000 -355.000000 65027.000000 36 34 1
245.000000 -355.000000 65028.000000 21 33 1
246.000000 -355.000000 65028.000000 17 35 1
247.000000 -355.000000 65029.000000 13 32 1
248.000000 -355.000000 65029.000000 12 33 1
249.000000 -355.000000 65030.000000 12 35 1
250.000000 -355.000000 65031.000000 12 34 1
251.000000 -355.000000 65034.000000 13 33 1
252.000000 -355.000000 65035.000000 9 30 1
253.000000 -355.000000 65036.000000 5 30 1
254.000000 -355.000000 65037.000000 8 32 1
255.000000 -355.000000 65038.000000 11 34 1
256.000000 -355.000000 65038.000000 8 37 1
257.000000 -355.000000 65039.000000 6 37 1
258.000000 -355.000000 65040.000000 4 37 1
259.000000 -355.000000 65040.000000 2 37 1
260.000000 -355.000000 65040.000000 2 30 1
261.000000 -355.000000 65041.000000 3 27 1
262.000000 -355.000000 65041.000000 3 28 1
263.000000 -355.000000 65041.000000 3 31 1
264.000000 -355.000000 65041.000000 4 26 1
265.000000 -355.000000 65041.000000 6 26 1
266.000000 -355.000000 65041.000000 5 24 1
267.000000 -355.000000 65042.000000 5 16 1
268.000000 -355.000000 65042.000000 7 22 1
269.000000 -355.000000 65042.000000 9 31 1
270.000000 -355.000000 65043.000000 7 32 1
271.000000 -355.000000 65043.000000 5 34 1
272.000000 -355.000000 65043.000000 7 35 1
273.000000 -355.000000 65043.000000 8 35 1
274.000000 -355.000000 65043.000000 8 34 1
275.000000 -355.000000 65043.000000 8 31 1
276.000000 -355.000000 65043.000000 7 30 1
277.000000 -355.000000 65043.000000 6 30 1
278.000000 -355.000000 65043.000000 9 32 1
279.000000 -355.000000 65043.000000 11 35 1
280.000000 -355.000000 65042.000000 14 36 1
281.000000 -355.000000 65042.000000 16 37 1
282.000000 -355.000000 65042.000000 18 43 1
283.000000 -355.000000 65042.000000 19 50 1
284.000000 -355.000000 65042.000000 21 50 1
285.000000 -355.000000 65041.000000 22 50 1
286.000000 -355.000000 65041.000000 23 51 1
287.000000 -355.000000 65041.000000 24 53 1
288.000000 -355.000000 65041.000000 30 53 1
289.000000 -355.000000 65041.000000 36 53 1
290.000000 -355.000000 65040.000000 28 58 1
291.000000 -355.000000 65040.000000 21 71 1
292.000000 -355.000000 65038.000000 27 72 1
293.000000 -355.000000 65038.000000 33 74 1
294.000000 -355.000000 65037.000000 39 73 1
295.000000 -355.000000 65037.000000 46 73 1
296.000000 -355.000000 65035.000000 41 77 1
297.000000 -355.000000 65035.000000 37 82 1
298.000000 -355.000000 65035.000000 38 84 2
299.000000 -355.000000 65034.000000 40 86 1
300.000000 -355.000000 65033.000000 43 84 1
301.000000 -355.000000 65032.000000 47 83 1
302.000000 -355.000000 65031.000000 44 83 1
303.000000 -355.000000 65030.000000 42 83 1
304.000000 -355.000000 65030.000000 45 83 1
305.000000 -355.000000 65028.000000 49 83 2
306.000000 -355.000000 65028.000000 53 85 3
307.000000 -355.000000 65029.000000 58 98 2
244.000000 -356.000000 65027.000000 33 34 1
245.000000 -356.000000 65028.000000 17 34 1
246.000000 -356.000000 65028.000000 14 35 1
247.000000 -356.000000 65029.000000 12 32 1
248.000000 -356.000000 65029.000000 13 34 1
249.000000 -356.000000 65030.000000 14 31 3
250.000000 -356.000000 65034.000000 15 29 5
251.000000 -356.000000 65035.000000 17 33 3
252.000000 -356.000000 65035.000000 10 31 1
253.000000 -356.000000 65036.000000 4 33 1
254.000000 -356.000000 65037.000000 6 36 1
255.000000 -356.000000 65037.000000 8 35 1
256.000000 -356.000000 65038.000000 7 36 1
257.000000 -356.000000 65038.000000 7 36 1
258.000000 -356.000000 65040.000000 4 29 1
259.000000 -356.000000 65040.000000 1 31 1
260.000000 -356.000000 65040.000000 2 33 1
261.000000 -356.000000 65041.000000 4 31 1
262.000000 -356.000000 65041.000000 4 29 1
263.000000 -356.000000 65041.000000 4 30 1
264.000000 -356.000000 65041.000000 5 25 1
265.000000 -356.000000 65041.000000 6 24 1
266.000000 -356.000000 65041.000000 5 24 1
267.000000 -356.000000 65042.000000 5 23 1
268.000000 -356.000000 65043.000000 7 23 1
269.000000 -356.000000 65043.000000 10 32 3
270.000000 -356.000000 65043.000000 6 36 5
271.000000 -356.000000 65043.000000 3 35 3
272.000000 -356.000000 65043.000000 5 35 1
273.000000 -356.000000 65043.000000 8 35 1
274.000000 -356.000000 65043.000000 9 36 2
275.000000 -356.000000 65043.000000 10 32 1
276.000000 -356.000000 65043.000000 10 30 1
277.000000 -356.000000 65043.000000 10 32 1
278.000000 -356.000000 65043.000000 12 37 1
279.000000 -356.000000 65043.000000 14 41 5
280.000000 -356.000000 65042.000000 17 46 10
281.000000 -356.000000 65042.000000 21 49 5
282.000000 -356.000000 65043.000000 23 53 1
283.000000 -356.000000 65042.000000 26 49 1
284.000000 -356.000000 65042.000000 29 59 2
285.000000 -356.000000 65041.000000 33 61 1
286.000000 -356.000000 65041.000000 34 63 1
287.000000 -356.000000 65041.000000 35 57 3
288.000000 -356.000000 65041.000000 45 77 5
289.000000 -356.000000 65041.000000 56 70 3
290.000000 -356.000000 65040.000000 42 64 1
291.000000 -356.000000 65040.000000 28 64 1
292.000000 -356.000000 65038.000000 36 82 1
293.000000 -356.000000 65037.000000 44 81 1
294.000000 -356.000000 65037.000000 53 81 1
295.000000 -356.000000 65036.000000 63 82 1
296.000000 -356.000000 65035.000000 54 84 1
297.000000 -356.000000 65035.000000 46 81 1
298.000000 -356.000000 65035.000000 46 87 2
299.000000 -356.000000 65034.000000 47 86 2
300.000000 -356.000000 65033.000000 46 86 1
301.000000 -356.000000 65032.000000 45 84 1
302.000000 -356.000000 65031.000000 44 82 1
303.000000 -356.000000 65031.000000 43 83 1
304.000000 -356.000000 65030.000000 46 85 1
305.000000 -356.000000 65030.000000 50 82 1
306.000000 -356.000000 65030.000000 52 92 2
244.000000 -357.000000 65027.000000 29 25 2
245.000000 -357.000000 65028.000000 15 22 1
246.000000 -357.000000 65028.000000 13 32 1
247.000000 -357.000000 65029.000000 12 32 1
248.000000 -357.000000 65029.000000 12 29 1
249.000000 -357.000000 65030.000000 12 26 5
250.000000 -357.000000 65034.000000 13 28 10
251.000000 -357.000000 65035.000000 13 34 5
252.000000 -357.000000 65036.000000 9 35 1
253.000000 -357.000000 65037.000000 5 36 1
254.000000 -357.000000 65037.000000 7 35 1
255.000000 -357.000000 65038.000000 9 34 1
256.000000 -357.000000 65038.000000 8 35 1
257.000000 -357.000000 65038.000000 7 36 1
258.000000 -357.000000 65039.000000 4 28 1
259.000000 -357.000000 65040.000000 2 30 1
260.000000 -357.000000 65040.000000 4 32 1
261.000000 -357.000000 65041.000000 6 35 1
262.000000 -357.000000 65041.000000 6 30 1
263.000000 -357.000000 65041.000000 7 30 1
264.000000 -357.000000 65041.000000 7 26 1
265.000000 -357.000000 65042.000000 7 34 1
266.000000 -357.000000 65042.000000 7 34 1
267.000000 -357.000000 65042.000000 8 34 1
268.000000 -357.000000 65043.000000 13 34 1
269.000000 -357.000000 65043.000000 18 34 5
270.000000 -357.000000 65043.000000 11 36 9
271.000000 -357.000000 65042.000000 5 39 5
272.000000 -357.000000 65043.000000 7 39 1
273.000000 -357.000000 65043.000000 9 40 2
274.000000 -357.000000 65042.000000 10 38 4
275.000000 -357.000000 65042.000000 11 34 2
276.000000 -357.000000 65042.000000 13 34 1
277.000000 -357.000000 65043.000000 16 34 1
278.000000 -357.000000 65043.000000 14 38 1
279.000000 -357.000000 65043.000000 13 49 10
280.000000 -357.000000 65042.000000 15 48 19
281.000000 -357.000000 65043.000000 17 47 10
282.000000 -357.000000 65043.000000 18 48 1
283.000000 -357.000000 65042.000000 20 49 2
284.000000 -357.000000 65042.000000 21 56 3
285.000000 -357.000000 65041.000000 23 71 2
286.000000 -357.000000 65041.000000 24 66 1
287.000000 -357.000000 65041.000000 25 61 5
288.000000 -357.000000 65041.000000 30 68 9
289.000000 -357.000000 65041.000000 36 75 5
290.000000 -357.000000 65040.000000 27 66 1
291.000000 -357.000000 65040.000000 18 57 1
292.000000 -357.000000 65038.000000 24 69 2
293.000000 -357.000000 65038.000000 30 87 2
294.000000 -357.000000 65037.000000 36 83 2
295.000000 -357.000000 65036.000000 42 80 1
296.000000 -357.000000 65035.000000 40 80 1
297.000000 -357.000000 65035.000000 38 81 2
298.000000 -357.000000 65034.000000 39 82 3
299.000000 -357.000000 65033.000000 40 84 2
300.000000 -357.000000 65033.000000 36 78 2
301.000000 -357.000000 65032.000000 33 72 1
302.000000 -357.000000 65031.000000 33 74 1
303.000000 -357.000000 65030.000000 33 77 1
304.000000 -357.000000 65029.000000 36 79 1
305.000000 -357.000000 65029.000000 39 82 1
306.000000 -357.000000 65029.000000 41 80 2
244.000000 -358.000000 65027.000000 26 17 9
245.000000 -358.000000 65028.000000 14 23 5
246.000000 -358.000000 65028.000000 13 30 1
247.000000 -358.000000 65029.000000 12 27 1
248.000000 -358.000000 65029.000000 11 25 1
249.000000 -358.000000 65030.000000 11 26 3
250.000000 -358.000000 65034.000000 10 27 5
251.000000 -358.000000 65035.000000 10 27 3
252.000000 -358.000000 65036.000000 8 27 1
253.000000 -358.000000 65036.000000 7 26 2
254.000000 -358.000000 65037.000000 8 26 3
255.000000 -358.000000 65038.000000 10 28 2
256.000000 -358.000000 65038.000000 8 39 1
257.000000 -358.000000 65038.000000 7 31 1
258.000000 -358.000000 65039.000000 5 27 1
259.000000 -358.000000 65040.000000 4 27 1
260.000000 -358.000000 65040.000000 6 27 1
261.000000 -358.000000 65040.000000 8 29 1
262.000000 -358.000000 65041.000000 9 31 1
263.000000 -358.000000 65041.000000 10 29 1
264.000000 -358.000000 65041.000000 9 27 1
265.000000 -358.000000 65041.000000 8 31 1
266.000000 -358.000000 65043.000000 10 37 1
267.000000 -358.000000 65043.000000 12 34 1
268.000000 -358.000000 65043.000000 19 31 1
269.000000 -358.000000 65043.000000 26 30 3
270.000000 -358.000000 65043.000000 16 30 5
271.000000 -358.000000 65043.000000 7 34 3
272.000000 -358.000000 65043.000000 8 39 1
273.000000 -358.000000 65043.000000 10 39 1
274.000000 -358.000000 65042.000000 11 40 2
275.000000 -358.000000 65042.000000 12 39 2
276.000000 -358.000000 65042.000000 17 39 1
277.000000 -358.000000 65042.000000 23 39 1
278.000000 -358.000000 65043.000000 17 39 1
279.000000 -358.000000 65043.000000 12 39 6
280.000000 -358.000000 65042.000000 13 39 11
281.000000 -358.000000 65043.000000 14 38 6
282.000000 -358.000000 65043.000000 14 38 1
283.000000 -358.000000 65042.000000 14 45 1
284.000000 -358.000000 65042.000000 13 53 2
285.000000 -358.000000 65041.000000 13 41 2
286.000000 -358.000000 65041.000000 14 30 2
287.000000 -358.000000 65041.000000 15 37 5
288.000000 -358.000000 65041.000000 16 45 8
289.000000 -358.000000 65040.000000 17 37 4
290.000000 -358.000000 65040.000000 13 30 1
291.000000 -358.000000 65040.000000 9 47 1
292.000000 -358.000000 65038.000000 13 56 1
293.000000 -358.000000 65038.000000 17 49 1
294.000000 -358.000000 65037.000000 19 42 1
295.000000 -358.000000 65036.000000 21 47 1
296.000000 -358.000000 65035.000000 25 53 1
297.000000 -358.000000 65035.000000 30 62 1
298.000000 -358.000000 65034.000000 32 72 2
299.000000 -358.000000 65033.000000 34 65 2
300.000000 -358.000000 65033.000000 27 58 2
301.000000 -358.000000 65032.000000 21 41 1
302.000000 -358.000000 65030.000000 22 24 1
303.000000 -358.000000 65029.000000 23 31 1
304.000000 -358.000000 65028.000000 25 39 1
305.000000 -358.000000 65027.000000 28 40 1
306.000000 -358.000000 65027.000000 30 41 1
307.000000 -358.000000 65027.000000 33 51 1
245.000000 -359.000000 65028.000000 9 8 8
246.000000 -359.000000 65028.000000 8 13 1
247.000000 -359.000000 65029.000000 7 19 1
248.000000 -359.000000 65029.000000 7 17 1
249.000000 -359.000000 65035.000000 8 15 1
250.000000 -359.000000 65035.000000 8 18 1
251.000000 -359.000000 65035.000000 8 21 1
252.000000 -359.000000 65036.000000 8 20 1
253.000000 -359.000000 65036.000000 8 19 3
254.000000 -359.000000 65037.000000 9 21 5
255.000000 -359.000000 65038.000000 11 23 3
256.000000 -359.000000 65038.000000 8 24 1
257.000000 -359.000000 65038.000000 6 26 1
258.000000 -359.000000 65039.000000 5 25 1
259.000000 -359.000000 65040.000000 4 23 1
260.000000 -359.000000 65040.000000 6 27 1
261.000000 -359.000000 65041.000000 8 25 1
262.000000 -359.000000 65041.000000 9 26 1
263.000000 -359.000000 65041.000000 10 28 1
264.000000 -359.000000 65041.000000 9 28 1
265.000000 -359.000000 65043.000000 7 28 1
266.000000 -359.000000 65043.000000 7 27 1
267.000000 -359.000000 65043.000000 8 26 1
268.000000 -359.000000 65043.000000 12 28 1
269.000000 -359.000000 65043.000000 17 30 1
270.000000 -359.000000 65043.000000 12 30 1
271.000000 -359.000000 65043.000000 7 30 1
272.000000 -359.000000 65043.000000 9 32 1
273.000000 -359.000000 65043.000000 11 34 1
274.000000 -359.000000 65042.000000 11 36 1
275.000000 -359.000000 65042.000000 11 38 1
276.000000 -359.000000 65042.000000 13 36 2
277.000000 -359.000000 65042.000000 16 31 1
278.000000 -359.000000 65043.000000 12 32 1
279.000000 -359.000000 65043.000000 9 34 2
280.000000 -359.000000 65042.000000 11 28 3
281.000000 -359.000000 65043.000000 13 22 2
282.000000 -359.000000 65043.000000 10 22 1
283.000000 -359.000000 65043.000000 7 23 1
284.000000 -359.000000 65042.000000 8 23 1
285.000000 -359.000000 65041.000000 9 24 2
286.000000 -359.000000 65041.000000 9 22 4
287.000000 -359.000000 65041.000000 10 21 6
288.000000 -359.000000 65041.000000 12 28 8
289.000000 -359.000000 65040.000000 14 35 4
290.000000 -359.000000 65040.000000 10 36 1
291.000000 -359.000000 65040.000000 7 37 1
292.000000 -359.000000 65038.000000 8 38 1
293.000000 -359.000000 65038.000000 10 39 1
294.000000 -359.000000 65036.000000 12 40 1
295.000000 -359.000000 65035.000000 15 41 1
296.000000 -359.000000 65035.000000 20 50 1
297.000000 -359.000000 65035.000000 25 55 1
298.000000 -359.000000 65034.000000 27 59 1
299.000000 -359.000000 65033.000000 28 63 2
300.000000 -359.000000 65033.000000 20 52 3
301.000000 -359.000000 65032.000000 12 34 2
302.000000 -359.000000 65030.000000 16 27 1
303.000000 -359.000000 65029.000000 21 21 1
304.000000 -359.000000 65028.000000 22 37 1
305.000000 -359.000000 65027.000000 22 43 1
306.000000 -359.000000 65027.000000 26 39 1
307.000000 -359.000000 65027.000000 29 26 1
245.000000 -360.000000 65027.000000 4 8 5
246.000000 -360.000000 65028.000000 3 7 1
247.000000 -360.000000 65029.000000 3 8 1
248.000000 -360.000000 65029.000000 4 9 1
249.000000 -360.000000 65030.000000 5 12 1
250.000000 -360.000000 65035.000000 6 17 1
251.000000 -360.000000 65035.000000 7 17 1
252.000000 -360.000000 65035.000000 8 17 1
253.000000 -360.000000 65036.000000 9 19 2
254.000000 -360.000000 65036.000000 10 20 3
255.000000 -360.000000 65037.000000 12 24 2
256.000000 -360.000000 65038.000000 8 26 1
257.000000 -360.000000 65038.000000 5 25 1
258.000000 -360.000000 65039.000000 5 24 1
259.000000 -360.000000 65040.000000 5 23 1
260.000000 -360.000000 65040.000000 7 27 1
261.000000 -360.000000 65041.000000 9 22 1
262.000000 -360.000000 65042.000000 10 19 1
263.000000 -360.000000 65042.000000 11 21 1
264.000000 -360.000000 65043.000000 9 24 1
265.000000 -360.000000 65043.000000 7 26 1
266.000000 -360.000000 65043.000000 5 28 1
267.000000 -360.000000 65043.000000 4 25 1
268.000000 -360.000000 65043.000000 6 26 1
269.000000 -360.000000 65043.000000 8 27 1
270.000000 -360.000000 65043.000000 8 29 1
271.000000 -360.000000 65043.000000 8 30 1
272.000000 -360.000000 65043.000000 10 32 1
273.000000 -360.000000 65043.000000 12 32 1
274.000000 -360.000000 65042.000000 11 33 1
275.000000 -360.000000 65042.000000 11 33 1
276.000000 -360.000000 65042.000000 10 33 1
277.000000 -360.000000 65042.000000 9 30 1
278.000000 -360.000000 65043.000000 8 30 1
279.000000 -360.000000 65043.000000 7 26 1
280.000000 -360.000000 65042.000000 10 22 2
281.000000 -360.000000 65043.000000 13 19 1
282.000000 -360.000000 65043.000000 7 12 1
283.000000 -360.000000 65043.000000 1 13 1
284.000000 -360.000000 65043.000000 3 14 1
285.000000 -360.000000 65042.000000 5 13 2
286.000000 -360.000000 65041.000000 5 13 3
287.000000 -360.000000 65041.000000 5 18 3
288.000000 -360.000000 65041.000000 8 20 4
289.000000 -360.000000 65041.000000 12 27 2
290.000000 -360.000000 65040.000000 8 22 1
291.000000 -360.000000 65040.000000 5 35 1
292.000000 -360.000000 65038.000000 4 35 1
293.000000 -360.000000 65038.000000 3 37 1
294.000000 -360.000000 65037.000000 6 28 1
295.000000 -360.000000 65035.000000 10 37 1
296.000000 -360.000000 65035.000000 15 47 1
297.000000 -360.000000 65035.000000 21 53 1
298.000000 -360.000000 65035.000000 22 58 1
299.000000 -360.000000 65033.000000 23 52 1
300.000000 -360.000000 65032.000000 13 47 2
301.000000 -360.000000 65031.000000 3 39 1
302.000000 -360.000000 65029.000000 11 30 1
303.000000 -360.000000 65029.000000 20 32 1
304.000000 -360.000000 65027.000000 18 35 1
305.000000 -360.000000 65027.000000 17 44 1
306.000000 -360.000000 65026.000000 21 38 1
307.000000 -360.000000 65025.000000 26 43 1
308.000000 -360.000000 65025.000000 33 48 1
309.000000 -360.000000 65025.000000 40 39 1
310.000000 -360.000000 65025.000000 39 30 2
311.000000 -360.000000 65025.000000 39 28 7
245.000000 -361.000000 65026.000000 7 8 1
246.000000 -361.000000 65028.000000 6 10 1
247.000000 -361.000000 65029.000000 6 13 1
248.000000 -361.000000 65030.000000 6 10 1
249.000000 -361.000000 65030.000000 6 10 1
250.000000 -361.000000 65035.000000 6 17 1
251.000000 -361.000000 65035.000000 7 18 1
252.000000 -361.000000 65035.000000 6 18 1
253.000000 -361.000000 65036.000000 6 19 1
254.000000 -361.000000 65036.000000 7 20 1
255.000000 -361.000000 65038.000000 8 26 1
256.000000 -361.000000 65038.000000 6 25 1
257.000000 -361.000000 65038.000000 5 21 1
258.000000 -361.000000 65039.000000 6 20 1
259.000000 -361.000000 65040.000000 8 20 1
260.000000 -361.000000 65040.000000 7 18 1
261.000000 -361.000000 65041.000000 6 17 1
262.000000 -361.000000 65042.000000 7 18 1
263.000000 -361.000000 65042.000000 8 19 1
264.000000 -361.000000 65042.000000 7 23 1
265.000000 -361.000000 65043.000000 6 24 1
266.000000 -361.000000 65043.000000 5 24 1
267.000000 -361.000000 65043.000000 5 25 1
268.000000 -361.000000 65043.000000 6 26 1
269.000000 -361.000000 65043.000000 7 26 1
270.000000 -361.000000 65043.000000 9 25 1
271.000000 -361.000000 65043.000000 11 25 1
272.000000 -361.000000 65043.000000 11 30 1
273.000000 -361.000000 65043.000000 11 30 1
274.000000 -361.000000 65043.000000 11 30 1
275.000000 -361.000000 65042.000000 10 31 1
276.000000 -361.000000 65042.000000 10 30 1
277.000000 -361.000000 65042.000000 10 29 1
278.000000 -361.000000 65043.000000 8 31 1
279.000000 -361.000000 65043.000000 6 24 1
280.000000 -361.000000 65042.000000 8 24 1
281.000000 -361.000000 65043.000000 11 17 1
282.000000 -361.000000 65043.000000 7 14 1
283.000000 -361.000000 65043.000000 4 12 1
284.000000 -361.000000 65043.000000 5 14 1
285.000000 -361.000000 65042.000000 6 14 1
286.000000 -361.000000 65041.000000 6 15 2
287.000000 -361.000000 65041.000000 7 16 1
288.000000 -361.000000 65041.000000 10 25 1
289.000000 -361.000000 65041.000000 13 33 1
290.000000 -361.000000 65040.000000 10 33 1
291.000000 -361.000000 65040.000000 7 34 1
292.000000 -361.000000 65038.000000 7 35 1
293.000000 -361.000000 65038.000000 8 36 1
294.000000 -361.000000 65036.000000 11 34 1
295.000000 -361.000000 65035.000000 15 33 1
296.000000 -361.000000 65034.000000 19 45 1
297.000000 -361.000000 65034.000000 24 52 1
298.000000 -361.000000 65034.000000 28 51 1
299.000000 -361.000000 65033.000000 32 51 1
300.000000 -361.000000 65032.000000 23 47 1
301.000000 -361.000000 65030.000000 14 45 1
302.000000 -361.000000 65029.000000 19 41 1
303.000000 -361.000000 65028.000000 23 37 1
304.000000 -361.000000 65027.000000 27 41 1
305.000000 -361.000000 65027.000000 32 45 1
306.000000 -361.000000 65026.000000 31 46 1
307.000000 -361.000000 65026.000000 30 47 1
308.000000 -361.000000 65026.000000 33 49 1
309.000000 -361.000000 65026.000000 37 43 1
310.000000 -361.000000 65026.000000 36 33 1
311.000000 -361.000000 65025.000000 35 28 4
245.000000 -362.000000 65026.000000 10 10 1
246.000000 -362.000000 65027.000000 9 13 1
247.000000 -362.000000 65029.000000 9 13 1
248.000000 -362.000000 65030.000000 8 11 1
249.000000 -362.000000 65031.000000 8 14 1
250.000000 -362.000000 65035.000000 7 17 1
251.000000 -362.000000 65035.000000 7 19 1
252.000000 -362.000000 65035.000000 5 21 1
253.000000 -362.000000 65035.000000 4 21 1
254.000000 -362.000000 65036.000000 4 21 1
255.000000 -362.000000 65037.000000 5 23 1
256.000000 -362.000000 65038.000000 5 25 1
257.000000 -362.000000 65038.000000 5 22 1
258.000000 -362.000000 65039.000000 8 16 1
259.000000 -362.000000 65040.000000 11 16 1
260.000000 -362.000000 65040.000000 7 17 1
261.000000 -362.000000 65041.000000 4 20 1
262.000000 -362.000000 65042.000000 4 23 1
263.000000 -362.000000 65042.000000 5 23 1
264.000000 -362.000000 65043.000000 5 23 1
265.000000 -362.000000 65043.000000 5 23 1
266.000000 -362.000000 65043.000000 6 24 1
267.000000 -362.000000 65043.000000 7 25 1
268.000000 -362.000000 65043.000000 7 26 1
269.000000 -362.000000 65043.000000 7 23 2
270.000000 -362.000000 65043.000000 11 20 3
271.000000 -362.000000 65043.000000 15 26 2
272.000000 -362.000000 65043.000000 13 28 1
273.000000 -362.000000 65043.000000 11 28 1
274.000000 -362.000000 65043.000000 10 35 2
275.000000 -362.000000 65043.000000 10 28 1
276.000000 -362.000000 65042.000000 10 29 1
277.000000 -362.000000 65043.000000 11 30 1
278.000000 -362.000000 65043.000000 8 32 1
279.000000 -362.000000 65043.000000 5 26 8
280.000000 -362.000000 65043.000000 7 26 16
281.000000 -362.000000 65043.000000 9 19 8
282.000000 -362.000000 65042.000000 8 19 1
283.000000 -362.000000 65042.000000 7 17 1
284.000000 -362.000000 65042.000000 7 16 1
285.000000 -362.000000 65041.000000 7 18 1
286.000000 -362.000000 65041.000000 8 20 1
287.000000 -362.000000 65041.000000 10 25 1
288.000000 -362.000000 65041.000000 12 30 1
289.000000 -362.000000 65040.000000 14 32 1
290.000000 -362.000000 65040.000000 11 35 1
291.000000 -362.000000 65040.000000 9 34 1
292.000000 -362.000000 65039.000000 11 43 1
293.000000 -362.000000 65038.000000 13 37 1
294.000000 -362.000000 65035.000000 16 38 1
295.000000 -362.000000 65034.000000 20 33 3
296.000000 -362.000000 65034.000000 23 44 5
297.000000 -362.000000 65034.000000 27 44 3
298.000000 -362.000000 65034.000000 34 45 1
299.000000 -362.000000 65033.000000 41 46 1
300.000000 -362.000000 65030.000000 33 48 1
301.000000 -362.000000 65029.000000 26 45 1
302.000000 -362.000000 65029.000000 26 46 1
303.000000 -362.000000 65028.000000 27 47 1
304.000000 -362.000000 65027.000000 37 49 1
305.000000 -362.000000 65027.000000 47 45 6
306.000000 -362.000000 65026.000000 40 51 11
307.000000 -362.000000 65026.000000 34 48 6
308.000000 -362.000000 65026.000000 34 50 1
309.000000 -362.000000 65026.000000 34 39 1
310.000000 -362.000000 65026.000000 33 36 1
245.000000 -363.000000 65026.000000 11 13 1
246.000000 -363.000000 65026.000000 10 13 1
247.000000 -363.000000 65028.000000 10 14 1
248.000000 -363.000000 65030.000000 10 13 1
249.000000 -363.000000 65032.000000 10 19 1
250.000000 -363.000000 65035.000000 8 19 1
251.000000 -363.000000 65035.000000 6 24 1
252.000000 -363.000000 65035.000000 6 21 1
253.000000 -363.000000 65035.000000 6 20 1
254.000000 -363.000000 65036.000000 5 20 1
255.000000 -363.000000 65038.000000 5 22 1
256.000000 -363.000000 65038.000000 5 23 1
257.000000 -363.000000 65038.000000 5 24 1
258.000000 -363.000000 65040.000000 6 18 1
259.000000 -363.000000 65040.000000 7 17 1
260.000000 -363.000000 65040.000000 5 19 1
261.000000 -363.000000 65041.000000 4 23 1
262.000000 -363.000000 65041.000000 4 21 1
263.000000 -363.000000 65042.000000 5 20 1
264.000000 -363.000000 65042.000000 5 21 1
265.000000 -363.000000 65043.000000 6 23 1
266.000000 -363.000000 65043.000000 6 21 1
267.000000 -363.000000 65043.000000 6 19 1
268.000000 -363.000000 65043.000000 7 20 1
269.000000 -363.000000 65043.000000 8 21 3
270.000000 -363.000000 65043.000000 9 20 6
271.000000 -363.000000 65043.000000 11 28 3
272.000000 -363.000000 65043.000000 11 27 1
273.000000 -363.000000 65043.000000 11 26 2
274.000000 -363.000000 65043.000000 9 26 3
275.000000 -363.000000 65043.000000 7 26 2
276.000000 -363.000000 65043.000000 9 25 1
277.000000 -363.000000 65042.000000 11 24 1
278.000000 -363.000000 65043.000000 9 26 1
279.000000 -363.000000 65043.000000 7 29 16
280.000000 -363.000000 65043.000000 9 23 32
281.000000 -363.000000 65042.000000 12 21 16
282.000000 -363.000000 65042.000000 9 20 1
283.000000 -363.000000 65042.000000 7 26 1
284.000000 -363.000000 65042.000000 8 23 1
285.000000 -363.000000 65041.000000 9 21 1
286.000000 -363.000000 65041.000000 11 23 1
287.000000 -363.000000 65040.000000 13 27 1
288.000000 -363.000000 65040.000000 14 29 1
289.000000 -363.000000 65040.000000 14 39 1
290.000000 -363.000000 65040.000000 13 36 1
291.000000 -363.000000 65040.000000 12 34 1
292.000000 -363.000000 65038.000000 13 36 1
293.000000 -363.000000 65038.000000 14 39 1
294.000000 -363.000000 65037.000000 16 36 1
295.000000 -363.000000 65035.000000 19 34 5
296.000000 -363.000000 65034.000000 22 41 10
297.000000 -363.000000 65035.000000 25 46 5
298.000000 -363.000000 65034.000000 29 45 1
299.000000 -363.000000 65033.000000 34 45 1
300.000000 -363.000000 65031.000000 30 44 1
301.000000 -363.000000 65029.000000 26 43 1
302.000000 -363.000000 65029.000000 29 42 1
303.000000 -363.000000 65028.000000 31 42 1
304.000000 -363.000000 65026.000000 34 43 1
305.000000 -363.000000 65027.000000 37 45 11
306.000000 -363.000000 65026.000000 34 45 21
307.000000 -363.000000 65026.000000 31 46 11
308.000000 -363.000000 65026.000000 29 40 1
245.000000 -364.000000 65026.000000 12 12 1
246.000000 -364.000000 65027.000000 11 21 1
247.000000 -364.000000 65028.000000 11 14 1
248.000000 -364.000000 65029.000000 11 15 1
249.000000 -364.000000 65030.000000 12 18 1
250.000000 -364.000000 65034.000000 8 21 1
251.000000 -364.000000 65035.000000 5 21 1
252.000000 -364.000000 65035.000000 7 22 1
253.000000 -364.000000 65035.000000 9 20 1
254.000000 -364.000000 65036.000000 7 19 1
255.000000 -364.000000 65038.000000 5 21 1
256.000000 -364.000000 65038.000000 5 23 1
257.000000 -364.000000 65039.000000 5 22 1
258.000000 -364.000000 65040.000000 4 21 1
259.000000 -364.000000 65040.000000 3 21 1
260.000000 -364.000000 65040.000000 3 22 1
261.000000 -364.000000 65041.000000 4 20 1
262.000000 -364.000000 65042.000000 5 17 1
263.000000 -364.000000 65042.000000 6 15 1
264.000000 -364.000000 65042.000000 6 14 1
265.000000 -364.000000 65043.000000 7 16 1
266.000000 -364.000000 65043.000000 6 19 1
267.000000 -364.000000 65043.000000 6 16 1
268.000000 -364.000000 65043.000000 7 14 1
269.000000 -364.000000 65043.000000 9 19 2
270.000000 -364.000000 65043.000000 8 21 3
271.000000 -364.000000 65043.000000 8 24 2
272.000000 -364.000000 65043.000000 10 27 1
273.000000 -364.000000 65043.000000 12 26 1
274.000000 -364.000000 65043.000000 8 24 2
275.000000 -364.000000 65043.000000 4 22 1
276.000000 -364.000000 65043.000000 7 20 1
277.000000 -364.000000 65043.000000 11 21 1
278.000000 -364.000000 65043.000000 10 23 1
279.000000 -364.000000 65043.000000 9 22 8
280.000000 -364.000000 65042.000000 12 21 16
281.000000 -364.000000 65042.000000 15 21 8
282.000000 -364.000000 65042.000000 11 21 1
283.000000 -364.000000 65042.000000 8 26 1
284.000000 -364.000000 65042.000000 10 24 1
285.000000 -364.000000 65041.000000 12 25 1
286.000000 -364.000000 65041.000000 14 26 1
287.000000 -364.000000 65040.000000 17 27 1
288.000000 -364.000000 65040.000000 16 29 1
289.000000 -364.000000 65040.000000 15 28 1
290.000000 -364.000000 65040.000000 15 27 1
291.000000 -364.000000 65039.000000 16 28 1
292.000000 -364.000000 65038.000000 16 30 1
293.000000 -364.000000 65038.000000 16 29 1
294.000000 -364.000000 65037.000000 17 29 1
295.000000 -364.000000 65035.000000 18 33 3
296.000000 -364.000000 65034.000000 21 38 5
297.000000 -364.000000 65035.000000 24 38 3
298.000000 -364.000000 65034.000000 25 38 1
299.000000 -364.000000 65034.000000 27 36 1
300.000000 -364.000000 65029.000000 27 34 1
301.000000 -364.000000 65029.000000 27 31 1
302.000000 -364.000000 65028.000000 31 29 1
303.000000 -364.000000 65027.000000 36 30 1
304.000000 -364.000000 65026.000000 32 32 1
305.000000 -364.000000 65026.000000 28 35 6
306.000000 -364.000000 65026.000000 28 39 11
307.000000 -364.000000 65026.000000 28 38 6
308.000000 -364.000000 65026.000000 25 38 1
245.000000 -365.000000 65026.000000 9 12 1
246.000000 -365.000000 65027.000000 9 20 1
247.000000 -365.000000 65028.000000 9 14 1
248.000000 -365.000000 65029.000000 9 12 1
249.000000 -365.000000 65030.000000 9 11 1
250.000000 -365.000000 65034.000000 7 12 1
251.000000 -365.000000 65034.000000 6 14 1
252.000000 -365.000000 65035.000000 6 11 1
253.000000 -365.000000 65035.000000 7 8 1
254.000000 -365.000000 65036.000000 5 11 1
255.000000 -365.000000 65038.000000 4 14 1
256.000000 -365.000000 65038.000000 5 14 1
257.000000 -365.000000 65039.000000 7 15 1
258.000000 -365.000000 65040.000000 9 14 1
259.000000 -365.000000 65040.000000 11 14 1
260.000000 -365.000000 65040.000000 9 16 1
261.000000 -365.000000 65041.000000 7 18 1
262.000000 -365.000000 65042.000000 7 15 1
263.000000 -365.000000 65042.000000 8 11 1
264.000000 -365.000000 65042.000000 8 14 1
265.000000 -365.000000 65042.000000 9 14 1
266.000000 -365.000000 65043.000000 8 18 1
267.000000 -365.000000 65043.000000 8 11 1
268.000000 -365.000000 65043.000000 9 14 1
269.000000 -365.000000 65043.000000 10 17 1
270.000000 -365.000000 65043.000000 11 19 1
271.000000 -365.000000 65043.000000 11 21 1
272.000000 -365.000000 65043.000000 13 24 1
273.000000 -365.000000 65043.000000 14 27 1
274.000000 -365.000000 65043.000000 11 23 1
275.000000 -365.000000 65043.000000 8 21 1
276.000000 -365.000000 65043.000000 9 20 1
277.000000 -365.000000 65043.000000 10 20 1
278.000000 -365.000000 65043.000000 9 20 1
279.000000 -365.000000 65043.000000 7 21 1
280.000000 -365.000000 65043.000000 10 19 1
281.000000 -365.000000 65042.000000 14 14 1
282.000000 -365.000000 65042.000000 12 19 1
283.000000 -365.000000 65042.000000 10 26 1
284.000000 -365.000000 65042.000000 11 28 1
285.000000 -365.000000 65041.000000 13 30 1
286.000000 -365.000000 65040.000000 15 29 1
287.000000 -365.000000 65040.000000 17 28 1
288.000000 -365.000000 65040.000000 20 27 1
289.000000 -365.000000 65040.000000 24 27 1
290.000000 -365.000000 65039.000000 20 26 1
291.000000 -365.000000 65039.000000 17 25 1
292.000000 -365.000000 65038.000000 16 22 1
293.000000 -365.000000 65038.000000 15 20 1
294.000000 -365.000000 65037.000000 15 21 1
295.000000 -365.000000 65035.000000 16 23 1
296.000000 -365.000000 65035.000000 18 24 1
297.000000 -365.000000 65035.000000 21 26 1
298.000000 -365.000000 65035.000000 22 24 1
299.000000 -365.000000 65035.000000 22 22 1
300.000000 -365.000000 65029.000000 27 21 1
301.000000 -365.000000 65028.000000 32 21 1
302.000000 -365.000000 65028.000000 40 20 1
303.000000 -365.000000 65026.000000 49 19 1
304.000000 -365.000000 65026.000000 38 20 1
305.000000 -365.000000 65026.000000 27 22 1
306.000000 -365.000000 65026.000000 24 24 1
307.000000 -365.000000 65026.000000 22 27 1
308.000000 -365.000000 65026.000000 21 26 1
245.000000 -366.000000 65026.000000 7 9 1
246.000000 -366.000000 65027.000000 7 20 1
247.000000 -366.000000 65028.000000 7 10 1
248.000000 -366.000000 65029.000000 6 11 1
249.000000 -366.000000 65030.000000 6 10 1
250.000000 -366.000000 65032.000000 7 10 1
251.000000 -366.000000 65034.000000 8 8 1
252.000000 -366.000000 65035.000000 6 7 1
253.000000 -366.000000 65035.000000 5 7 1
254.000000 -366.000000 65036.000000 4 7 1
255.000000 -366.000000 65038.000000 3 12 1
256.000000 -366.000000 65038.000000 6 14 1
257.000000 -366.000000 65039.000000 10 12 1
258.000000 -366.000000 65040.000000 14 10 1
259.000000 -366.000000 65040.000000 19 13 1
260.000000 -366.000000 65040.000000 14 14 1
261.000000 -366.000000 65041.000000 10 14 1
262.000000 -366.000000 65041.000000 10 14 1
263.000000 -366.000000 65041.000000 11 14 1
264.000000 -366.000000 65042.000000 11 14 1
265.000000 -366.000000 65042.000000 11 15 1
266.000000 -366.000000 65042.000000 11 17 1
267.000000 -366.000000 65043.000000 11 16 1
268.000000 -366.000000 65043.000000 11 15 1
269.000000 -366.000000 65043.000000 12 17 1
270.000000 -366.000000 65043.000000 13 17 1
271.000000 -366.000000 65043.000000 15 19 1
272.000000 -366.000000 65043.000000 16 21 1
273.000000 -366.000000 65044.000000 17 22 3
274.000000 -366.000000 65044.000000 14 23 5
275.000000 -366.000000 65043.000000 12 20 3
276.000000 -366.000000 65043.000000 11 17 1
277.000000 -366.000000 65043.000000 10 15 1
278.000000 -366.000000 65043.000000 8 13 1
279.000000 -366.000000 65043.000000 6 15 1
280.000000 -366.000000 65043.000000 9 17 1
281.000000 -366.000000 65042.000000 13 17 1
282.000000 -366.000000 65042.000000 12 17 1
283.000000 -366.000000 65042.000000 12 24 3
284.000000 -366.000000 65042.000000 13 29 6
285.000000 -366.000000 65041.000000 15 31 3
286.000000 -366.000000 65040.000000 16 34 1
287.000000 -366.000000 65040.000000 18 33 1
288.000000 -366.000000 65040.000000 25 32 1
289.000000 -366.000000 65040.000000 33 26 1
290.000000 -366.000000 65040.000000 25 22 1
291.000000 -366.000000 65039.000000 18 20 4
292.000000 -366.000000 65039.000000 16 19 7
293.000000 -366.000000 65038.000000 14 19 4
294.000000 -366.000000 65038.000000 14 15 1
295.000000 -366.000000 65038.000000 14 17 1
296.000000 -366.000000 65035.000000 16 19 1
297.000000 -366.000000 65035.000000 19 18 1
298.000000 -366.000000 65035.000000 18 17 1
299.000000 -366.000000 65035.000000 18 16 1
301.000000 -366.000000 65026.000000 37 16 1
302.000000 -366.000000 65027.000000 49 26 1
303.000000 -366.000000 65027.000000 62 16 1
304.000000 -366.000000 65026.000000 44 14 1
305.000000 -366.000000 65026.000000 26 16 1
306.000000 -366.000000 65026.000000 21 19 1
307.000000 -366.000000 65026.000000 16 18 1
308.000000 -366.000000 65026.000000 17 17 1
245.000000 -367.000000 65027.000000 5 7 1
246.000000 -367.000000 65027.000000 5 7 1
247.000000 -367.000000 65027.000000 5 7 1
248.000000 -367.000000 65029.000000 5 7 1
249.000000 -367.000000 65030.000000 5 7 1
250.000000 -367.000000 65032.000000 9 8 1
251.000000 -367.000000 65034.000000 13 9 1
252.000000 -367.000000 65035.000000 10 8 1
253.000000 -367.000000 65035.000000 7 9 1
254.000000 -367.000000 65036.000000 9 8 1
255.000000 -367.000000 65036.000000 12 10 1
256.000000 -367.000000 65038.000000 11 10 1
257.000000 -367.000000 65039.000000 10 10 1
258.000000 -367.000000 65040.000000 13 9 1
259.000000 -367.000000 65040.000000 15 12 1
260.000000 -367.000000 65040.000000 13 11 1
261.000000 -367.000000 65040.000000 11 10 1
262.000000 -367.000000 65041.000000 12 13 1
263.000000 -367.000000 65040.000000 12 15 1
264.000000 -367.000000 65041.000000 13 14 1
265.000000 -367.000000 65041.000000 13 17 1
266.000000 -367.000000 65042.000000 16 17 1
267.000000 -367.000000 65043.000000 18 14 1
268.000000 -367.000000 65043.000000 18 15 1
269.000000 -367.000000 65043.000000 18 17 1
270.000000 -367.000000 65044.000000 18 22 1
272.000000 -367.000000 65044.000000 23 23 1
273.000000 -367.000000 65044.000000 28 19 5
274.000000 -367.000000 65043.000000 20 20 10
275.000000 -367.000000 65043.000000 12 11 5
276.000000 -367.000000 65043.000000 10 10 1
277.000000 -367.000000 65043.000000 9 9 1
278.000000 -367.000000 65043.000000 8 12 1
279.000000 -367.000000 65043.000000 8 15 1
280.000000 -367.000000 65041.000000 11 18 1
281.000000 -367.000000 65040.000000 15 20 1
282.000000 -367.000000 65040.000000 17 21 1
283.000000 -367.000000 65040.000000 19 22 6
284.000000 -367.000000 65040.000000 17 22 11
285.000000 -367.000000 65040.000000 15 23 6
286.000000 -367.000000 65039.000000 15 24 1
287.000000 -367.000000 65039.000000 14 25 1
288.000000 -367.000000 65040.000000 20 25 1
289.000000 -367.000000 65039.000000 25 26 1
290.000000 -367.000000 65039.000000 20 22 1
291.000000 -367.000000 65039.000000 14 17 7
292.000000 -367.000000 65038.000000 13 18 14
293.000000 -367.000000 65038.000000 12 19 7
294.000000 -367.000000 65038.000000 12 14 1
295.000000 -367.000000 65038.000000 12 14 1
296.000000 -367.000000 65035.000000 14 16 1
297.000000 -367.000000 65035.000000 16 21 1
298.000000 -367.000000 65035.000000 13 14 1
301.000000 -367.000000 65026.000000 26 12 1
302.000000 -367.000000 65027.000000 34 9 1
303.000000 -367.000000 65026.000000 41 7 1
304.000000 -367.000000 65026.000000 29 8 1
305.000000 -367.000000 65026.000000 16 9 1
306.000000 -367.000000 65026.000000 14 11 1
307.000000 -367.000000 65026.000000 12 13 1
245.000000 -368.000000 65027.000000 4 4 1
246.000000 -368.000000 65027.000000 4 4 1
247.000000 -368.000000 65027.000000 4 4 1
248.000000 -368.000000 65029.000000 4 5 1
249.000000 -368.000000 65030.000000 5 5 1
250.000000 -368.000000 65032.000000 11 6 1
251.000000 -368.000000 65032.000000 18 6 1
252.000000 -368.000000 65032.000000 13 7 1
253.000000 -368.000000 65035.000000 9 7 4
254.000000 -368.000000 65036.000000 15 8 7
255.000000 -368.000000 65036.000000 21 9 4
256.000000 -368.000000 65038.000000 16 10 1
257.000000 -368.000000 65039.000000 11 9 4
258.000000 -368.000000 65040.000000 11 9 7
259.000000 -368.000000 65040.000000 12 9 4
260.000000 -368.000000 65040.000000 12 9 1
261.000000 -368.000000 65040.000000 13 10 1
262.000000 -368.000000 65040.000000 13 12 1
263.000000 -368.000000 65040.000000 14 13 1
264.000000 -368.000000 65041.000000 15 14 2
265.000000 -368.000000 65041.000000 16 15 1
266.000000 -368.000000 65042.000000 21 17 1
267.000000 -368.000000 65042.000000 26 18 1
268.000000 -368.000000 65043.000000 25 19 1
269.000000 -368.000000 65043.000000 24 14 1
270.000000 -368.000000 65044.000000 23 32 1
272.000000 -368.000000 65044.000000 31 30 1
274.000000 -368.000000 65043.000000 26 18 5
275.000000 -368.000000 65043.000000 13 11 3
276.000000 -368.000000 65043.000000 10 12 1
277.000000 -368.000000 65043.000000 8 12 1
278.000000 -368.000000 65043.000000 9 12 1
279.000000 -368.000000 65043.000000 10 12 2
280.000000 -368.000000 65040.000000 13 19 4
281.000000 -368.000000 65040.000000 17 20 2
282.000000 -368.000000 65040.000000 21 21 1
283.000000 -368.000000 65040.000000 26 22 3
284.000000 -368.000000 65039.000000 21 23 6
285.000000 -368.000000 65039.000000 16 22 3
286.000000 -368.000000 65039.000000 13 21 1
287.000000 -368.000000 65038.000000 11 21 1
288.000000 -368.000000 65039.000000 14 22 1
289.000000 -368.000000 65039.000000 18 22 1
290.000000 -368.000000 65039.000000 14 23 1
291.000000 -368.000000 65039.000000 11 23 4
292.000000 -368.000000 65038.000000 10 23 7
293.000000 -368.000000 65038.000000 10 14 4
294.000000 -368.000000 65038.000000 10 13 1
295.000000 -368.000000 65038.000000 10 12 2
303.000000 -368.000000 65026.000000 21 6 1
304.000000 -368.000000 65026.000000 14 4 1
305.000000 -368.000000 65026.000000 7 7 1
306.000000 -368.000000 65026.000000 8 6 1
251.000000 -369.000000 65032.000000 11 3 1
252.000000 -369.000000 65032.000000 8 3 1
259.000000 -369.000000 65040.000000 8 6 7
260.000000 -369.000000 65039.000000 9 5 1
261.000000 -369.000000 65039.000000 10 5 1
262.000000 -369.000000 65040.000000 11 5 1
263.000000 -369.000000 65040.000000 12 5 2
264.000000 -369.000000 65041.000000 12 7 4
