ply
    format ascii 1.0
    element vertex 10787
    property float x
    property float y
    property float z
    property uchar red
    property uchar green
    property uchar blue
    end_header
260.000000 -210.000000 65017.000000 34 35 1
261.000000 -210.000000 65017.000000 38 37 1
262.000000 -210.000000 65017.000000 31 40 1
263.000000 -210.000000 65017.000000 25 42 1
264.000000 -210.000000 65018.000000 21 44 1
265.000000 -210.000000 65019.000000 18 47 1
266.000000 -210.000000 65020.000000 12 16 1
267.000000 -210.000000 65020.000000 6 18 7
268.000000 -210.000000 65020.000000 16 21 14
269.000000 -210.000000 65021.000000 26 33 12
270.000000 -210.000000 65022.000000 37 48 10
271.000000 -210.000000 65022.000000 48 60 5
272.000000 -210.000000 65022.000000 55 79 1
273.000000 -210.000000 65022.000000 63 87 1
274.000000 -210.000000 65022.000000 68 84 2
275.000000 -210.000000 65022.000000 73 87 1
276.000000 -210.000000 65022.000000 78 90 1
277.000000 -210.000000 65022.000000 83 92 1
278.000000 -210.000000 65022.000000 81 98 1
279.000000 -210.000000 65021.000000 79 100 1
280.000000 -210.000000 65022.000000 79 104 1
281.000000 -210.000000 65021.000000 80 103 1
282.000000 -210.000000 65021.000000 79 103 2
283.000000 -210.000000 65021.000000 78 100 7
284.000000 -210.000000 65021.000000 80 97 12
285.000000 -210.000000 65020.000000 82 101 6
286.000000 -210.000000 65020.000000 88 115 1
287.000000 -210.000000 65020.000000 95 117 27
288.000000 -210.000000 65020.000000 93 119 54
289.000000 -210.000000 65020.000000 91 121 54
290.000000 -210.000000 65020.000000 96 124 55
291.000000 -210.000000 65020.000000 102 124 60
292.000000 -210.000000 65017.000000 111 125 65
293.000000 -210.000000 65017.000000 120 127 46
294.000000 -210.000000 65016.000000 116 129 27
295.000000 -210.000000 65016.000000 113 130 21
296.000000 -210.000000 65015.000000 109 131 15
297.000000 -210.000000 65016.000000 106 128 11
298.000000 -210.000000 65011.000000 101 125 6
299.000000 -210.000000 65011.000000 96 124 3
300.000000 -210.000000 65010.000000 94 124 1
301.000000 -210.000000 65010.000000 93 122 1
252.000000 -211.000000 65008.000000 38 62 2
253.000000 -211.000000 65009.000000 43 66 1
254.000000 -211.000000 65010.000000 42 59 1
255.000000 -211.000000 65011.000000 42 49 1
256.000000 -211.000000 65013.000000 36 50 1
257.000000 -211.000000 65013.000000 30 51 1
258.000000 -211.000000 65015.000000 31 47 1
259.000000 -211.000000 65017.000000 32 33 1
260.000000 -211.000000 65017.000000 34 35 1
261.000000 -211.000000 65017.000000 36 39 1
262.000000 -211.000000 65017.000000 26 36 1
263.000000 -211.000000 65017.000000 16 34 1
264.000000 -211.000000 65019.000000 19 34 1
265.000000 -211.000000 65019.000000 23 35 1
266.000000 -211.000000 65020.000000 19 31 1
267.000000 -211.000000 65020.000000 16 27 1
268.000000 -211.000000 65020.000000 22 23 1
269.000000 -211.000000 65021.000000 29 18 1
270.000000 -211.000000 65022.000000 39 50 1
271.000000 -211.000000 65021.000000 50 56 1
272.000000 -211.000000 65022.000000 58 83 1
273.000000 -211.000000 65022.000000 65 87 1
274.000000 -211.000000 65022.000000 69 86 1
275.000000 -211.000000 65022.000000 72 85 1
276.000000 -211.000000 65023.000000 75 87 1
277.000000 -211.000000 65022.000000 78 89 1
278.000000 -211.000000 65023.000000 77 95 1
279.000000 -211.000000 65023.000000 77 99 1
280.000000 -211.000000 65023.000000 79 98 1
281.000000 -211.000000 65022.000000 81 97 2
282.000000 -211.000000 65022.000000 79 97 3
283.000000 -211.000000 65022.000000 76 98 3
284.000000 -211.000000 65021.000000 78 96 4
285.000000 -211.000000 65021.000000 80 95 2
286.000000 -211.000000 65021.000000 85 109 1
287.000000 -211.000000 65022.000000 91 119 1
288.000000 -211.000000 65020.000000 91 117 1
289.000000 -211.000000 65020.000000 91 112 11
290.000000 -211.000000 65020.000000 97 120 22
291.000000 -211.000000 65020.000000 103 128 33
292.000000 -211.000000 65017.000000 108 126 44
293.000000 -211.000000 65017.000000 113 125 46
294.000000 -211.000000 65016.000000 112 129 48
295.000000 -211.000000 65016.000000 111 134 35
296.000000 -211.000000 65016.000000 106 129 22
297.000000 -211.000000 65016.000000 100 121 16
298.000000 -211.000000 65015.000000 95 119 10
299.000000 -211.000000 65013.000000 91 118 5
300.000000 -211.000000 65010.000000 89 118 1
301.000000 -211.000000 65009.000000 88 118 1
302.000000 -211.000000 65009.000000 87 119 1
252.000000 -212.000000 65009.000000 39 56 1
253.000000 -212.000000 65010.000000 41 55 1
254.000000 -212.000000 65011.000000 38 54 1
255.000000 -212.000000 65011.000000 35 46 1
256.000000 -212.000000 65013.000000 28 43 1
257.000000 -212.000000 65015.000000 21 43 1
258.000000 -212.000000 65016.000000 27 44 1
259.000000 -212.000000 65017.000000 34 39 1
260.000000 -212.000000 65017.000000 34 35 1
261.000000 -212.000000 65017.000000 34 37 1
262.000000 -212.000000 65017.000000 20 28 2
263.000000 -212.000000 65018.000000 7 32 2
264.000000 -212.000000 65019.000000 17 39 2
265.000000 -212.000000 65020.000000 28 38 1
266.000000 -212.000000 65020.000000 27 37 1
267.000000 -212.000000 65020.000000 26 31 1
268.000000 -212.000000 65020.000000 29 26 1
269.000000 -212.000000 65021.000000 32 39 1
270.000000 -212.000000 65022.000000 42 53 1
271.000000 -212.000000 65021.000000 53 60 1
272.000000 -212.000000 65022.000000 60 88 1
273.000000 -212.000000 65022.000000 68 87 1
274.000000 -212.000000 65023.000000 70 87 1
275.000000 -212.000000 65023.000000 72 86 1
276.000000 -212.000000 65023.000000 72 86 1
277.000000 -212.000000 65023.000000 73 87 1
278.000000 -212.000000 65023.000000 74 93 1
279.000000 -212.000000 65023.000000 75 93 2
280.000000 -212.000000 65023.000000 79 93 3
281.000000 -212.000000 65023.000000 83 95 2
282.000000 -212.000000 65023.000000 79 96 2
283.000000 -212.000000 65022.000000 75 98 2
284.000000 -212.000000 65022.000000 76 101 3
285.000000 -212.000000 65023.000000 78 102 3
286.000000 -212.000000 65023.000000 83 103 2
287.000000 -212.000000 65023.000000 88 109 1
288.000000 -212.000000 65022.000000 90 115 1
289.000000 -212.000000 65021.000000 92 115 6
290.000000 -212.000000 65021.000000 98 116 11
291.000000 -212.000000 65019.000000 104 124 17
292.000000 -212.000000 65018.000000 105 127 22
293.000000 -212.000000 65017.000000 107 127 26
294.000000 -212.000000 65017.000000 108 129 31
295.000000 -212.000000 65017.000000 110 128 25
296.000000 -212.000000 65016.000000 102 128 19
297.000000 -212.000000 65016.000000 95 121 12
298.000000 -212.000000 65015.000000 90 111 6
299.000000 -212.000000 65013.000000 86 113 3
300.000000 -212.000000 65011.000000 84 116 1
301.000000 -212.000000 65011.000000 83 116 1
302.000000 -212.000000 65009.000000 83 116 1
303.000000 -212.000000 65009.000000 84 116 2
304.000000 -212.000000 65008.000000 83 117 4
305.000000 -212.000000 65008.000000 83 107 21
252.000000 -213.000000 65010.000000 40 52 1
253.000000 -213.000000 65011.000000 39 47 1
254.000000 -213.000000 65012.000000 36 45 1
255.000000 -213.000000 65013.000000 34 44 1
256.000000 -213.000000 65014.000000 31 44 1
257.000000 -213.000000 65016.000000 29 44 1
258.000000 -213.000000 65017.000000 33 45 1
259.000000 -213.000000 65019.000000 38 47 1
260.000000 -213.000000 65019.000000 39 46 1
261.000000 -213.000000 65019.000000 41 46 2
262.000000 -213.000000 65020.000000 33 38 3
263.000000 -213.000000 65020.000000 25 30 3
264.000000 -213.000000 65020.000000 30 37 4
265.000000 -213.000000 65020.000000 36 44 2
266.000000 -213.000000 65020.000000 36 49 1
267.000000 -213.000000 65021.000000 36 54 1
268.000000 -213.000000 65023.000000 38 55 1
269.000000 -213.000000 65023.000000 41 56 1
270.000000 -213.000000 65023.000000 48 60 1
271.000000 -213.000000 65023.000000 55 64 1
272.000000 -213.000000 65023.000000 59 79 1
273.000000 -213.000000 65023.000000 64 85 1
274.000000 -213.000000 65023.000000 65 83 1
275.000000 -213.000000 65023.000000 65 81 1
276.000000 -213.000000 65024.000000 67 84 1
277.000000 -213.000000 65024.000000 68 86 1
278.000000 -213.000000 65024.000000 70 92 1
279.000000 -213.000000 65024.000000 72 95 3
280.000000 -213.000000 65024.000000 75 93 5
281.000000 -213.000000 65023.000000 79 94 3
282.000000 -213.000000 65023.000000 75 96 1
283.000000 -213.000000 65023.000000 70 98 2
284.000000 -213.000000 65023.000000 71 98 3
285.000000 -213.000000 65023.000000 73 99 3
286.000000 -213.000000 65023.000000 78 104 4
287.000000 -213.000000 65023.000000 83 104 2
288.000000 -213.000000 65023.000000 86 109 1
289.000000 -213.000000 65022.000000 89 114 1
290.000000 -213.000000 65021.000000 94 117 1
291.000000 -213.000000 65020.000000 98 120 1
292.000000 -213.000000 65019.000000 100 123 1
293.000000 -213.000000 65019.000000 102 127 7
294.000000 -213.000000 65019.000000 103 124 14
295.000000 -213.000000 65017.000000 105 122 15
296.000000 -213.000000 65017.000000 100 121 17
297.000000 -213.000000 65017.000000 96 121 9
298.000000 -213.000000 65016.000000 92 115 2
299.000000 -213.000000 65015.000000 87 111 1
300.000000 -213.000000 65013.000000 82 115 1
301.000000 -213.000000 65010.000000 77 117 1
302.000000 -213.000000 65009.000000 80 115 1
303.000000 -213.000000 65008.000000 83 112 1
304.000000 -213.000000 65008.000000 84 108 1
305.000000 -213.000000 65008.000000 84 104 17
251.000000 -214.000000 65007.000000 44 59 7
252.000000 -214.000000 65011.000000 40 48 1
253.000000 -214.000000 65013.000000 37 46 1
254.000000 -214.000000 65017.000000 35 45 1
255.000000 -214.000000 65017.000000 34 45 1
256.000000 -214.000000 65017.000000 35 45 1
257.000000 -214.000000 65017.000000 37 47 1
258.000000 -214.000000 65019.000000 39 49 1
259.000000 -214.000000 65020.000000 42 51 1
260.000000 -214.000000 65020.000000 45 54 1
261.000000 -214.000000 65020.000000 49 51 1
262.000000 -214.000000 65020.000000 46 49 2
263.000000 -214.000000 65020.000000 43 52 7
264.000000 -214.000000 65020.000000 44 55 12
265.000000 -214.000000 65020.000000 45 55 6
266.000000 -214.000000 65020.000000 45 56 1
267.000000 -214.000000 65021.000000 46 60 1
268.000000 -214.000000 65021.000000 48 64 1
269.000000 -214.000000 65023.000000 50 64 1
270.000000 -214.000000 65023.000000 53 65 1
271.000000 -214.000000 65021.000000 57 65 1
272.000000 -214.000000 65023.000000 59 71 1
273.000000 -214.000000 65023.000000 61 74 1
274.000000 -214.000000 65024.000000 60 77 1
275.000000 -214.000000 65024.000000 59 79 1
276.000000 -214.000000 65025.000000 61 83 1
277.000000 -214.000000 65024.000000 64 83 1
278.000000 -214.000000 65024.000000 66 92 1
279.000000 -214.000000 65024.000000 69 92 4
280.000000 -214.000000 65024.000000 72 92 8
281.000000 -214.000000 65024.000000 76 91 4
282.000000 -214.000000 65024.000000 71 91 1
283.000000 -214.000000 65023.000000 66 93 1
284.000000 -214.000000 65023.000000 67 95 2
285.000000 -214.000000 65023.000000 68 100 3
286.000000 -214.000000 65023.000000 73 106 3
287.000000 -214.000000 65023.000000 78 101 2
288.000000 -214.000000 65023.000000 82 98 1
289.000000 -214.000000 65023.000000 87 103 1
290.000000 -214.000000 65022.000000 90 108 1
291.000000 -214.000000 65021.000000 93 113 1
292.000000 -214.000000 65020.000000 95 118 1
293.000000 -214.000000 65019.000000 98 119 8
294.000000 -214.000000 65018.000000 99 121 15
295.000000 -214.000000 65017.000000 100 122 12
296.000000 -214.000000 65017.000000 99 124 9
297.000000 -214.000000 65017.000000 98 120 5
298.000000 -214.000000 65017.000000 93 119 2
299.000000 -214.000000 65013.000000 89 116 1
300.000000 -214.000000 65013.000000 80 114 1
301.000000 -214.000000 65012.000000 71 114 1
302.000000 -214.000000 65010.000000 77 114 1
303.000000 -214.000000 65009.000000 83 113 1
304.000000 -214.000000 65009.000000 84 107 1
305.000000 -214.000000 65009.000000 86 107 9
306.000000 -214.000000 65009.000000 79 94 17
307.000000 -214.000000 65009.000000 73 69 16
247.000000 -215.000000 65006.000000 6 3 3
248.000000 -215.000000 65006.000000 17 9 6
249.000000 -215.000000 65006.000000 28 16 16
250.000000 -215.000000 65007.000000 42 61 26
251.000000 -215.000000 65007.000000 56 63 13
252.000000 -215.000000 65011.000000 50 60 1
253.000000 -215.000000 65015.000000 44 58 1
254.000000 -215.000000 65016.000000 43 54 1
255.000000 -215.000000 65017.000000 42 51 1
256.000000 -215.000000 65017.000000 46 57 1
257.000000 -215.000000 65018.000000 50 63 1
258.000000 -215.000000 65019.000000 48 65 1
259.000000 -215.000000 65020.000000 47 68 1
260.000000 -215.000000 65020.000000 52 63 1
261.000000 -215.000000 65020.000000 57 58 1
262.000000 -215.000000 65020.000000 51 58 1
263.000000 -215.000000 65020.000000 46 59 10
264.000000 -215.000000 65020.000000 46 63 20
265.000000 -215.000000 65021.000000 47 67 10
266.000000 -215.000000 65021.000000 47 67 1
267.000000 -215.000000 65021.000000 47 68 1
268.000000 -215.000000 65022.000000 48 63 1
269.000000 -215.000000 65023.000000 50 65 1
270.000000 -215.000000 65023.000000 52 65 1
271.000000 -215.000000 65023.000000 54 66 1
272.000000 -215.000000 65023.000000 55 66 1
273.000000 -215.000000 65023.000000 57 67 1
274.000000 -215.000000 65024.000000 56 71 1
275.000000 -215.000000 65024.000000 55 75 1
276.000000 -215.000000 65025.000000 55 77 1
277.000000 -215.000000 65026.000000 55 80 1
278.000000 -215.000000 65025.000000 58 81 1
279.000000 -215.000000 65025.000000 60 83 6
280.000000 -215.000000 65025.000000 64 83 11
281.000000 -215.000000 65024.000000 67 84 6
282.000000 -215.000000 65024.000000 64 86 1
283.000000 -215.000000 65023.000000 60 88 1
284.000000 -215.000000 65023.000000 60 87 2
285.000000 -215.000000 65023.000000 60 86 2
286.000000 -215.000000 65024.000000 66 91 3
287.000000 -215.000000 65023.000000 73 96 2
288.000000 -215.000000 65023.000000 76 96 1
289.000000 -215.000000 65023.000000 79 96 1
290.000000 -215.000000 65022.000000 83 101 1
291.000000 -215.000000 65021.000000 86 107 1
292.000000 -215.000000 65022.000000 89 113 1
293.000000 -215.000000 65020.000000 91 119 8
294.000000 -215.000000 65018.000000 93 123 16
295.000000 -215.000000 65018.000000 94 126 8
296.000000 -215.000000 65017.000000 94 122 1
297.000000 -215.000000 65017.000000 94 119 1
298.000000 -215.000000 65017.000000 91 119 2
299.000000 -215.000000 65016.000000 88 117 2
300.000000 -215.000000 65013.000000 82 114 2
301.000000 -215.000000 65012.000000 76 111 1
302.000000 -215.000000 65010.000000 80 113 1
303.000000 -215.000000 65010.000000 85 115 1
304.000000 -215.000000 65009.000000 88 113 1
305.000000 -215.000000 65009.000000 91 111 1
306.000000 -215.000000 65009.000000 83 96 1
307.000000 -215.000000 65009.000000 76 85 13
247.000000 -216.000000 65006.000000 9 2 2
248.000000 -216.000000 65007.000000 23 33 3
249.000000 -216.000000 65008.000000 37 49 8
250.000000 -216.000000 65008.000000 52 65 14
251.000000 -216.000000 65009.000000 68 63 7
252.000000 -216.000000 65012.000000 59 61 1
253.000000 -216.000000 65016.000000 51 64 1
254.000000 -216.000000 65017.000000 50 67 1
255.000000 -216.000000 65017.000000 50 71 1
256.000000 -216.000000 65018.000000 56 75 1
257.000000 -216.000000 65019.000000 63 74 1
258.000000 -216.000000 65020.000000 57 74 1
259.000000 -216.000000 65020.000000 52 66 1
260.000000 -216.000000 65020.000000 58 66 1
261.000000 -216.000000 65020.000000 65 62 1
262.000000 -216.000000 65020.000000 57 62 1
263.000000 -216.000000 65021.000000 50 60 5
264.000000 -216.000000 65021.000000 49 65 10
265.000000 -216.000000 65022.000000 49 65 5
266.000000 -216.000000 65023.000000 49 65 1
267.000000 -216.000000 65023.000000 49 63 1
268.000000 -216.000000 65021.000000 49 62 1
269.000000 -216.000000 65023.000000 50 63 1
270.000000 -216.000000 65024.000000 50 65 1
271.000000 -216.000000 65023.000000 51 64 1
272.000000 -216.000000 65023.000000 52 63 1
273.000000 -216.000000 65024.000000 53 64 1
274.000000 -216.000000 65024.000000 52 65 1
275.000000 -216.000000 65025.000000 51 66 1
276.000000 -216.000000 65025.000000 49 67 1
277.000000 -216.000000 65025.000000 47 70 1
278.000000 -216.000000 65026.000000 49 73 2
279.000000 -216.000000 65025.000000 52 75 4
280.000000 -216.000000 65025.000000 55 78 6
281.000000 -216.000000 65025.000000 59 80 3
282.000000 -216.000000 65025.000000 57 82 1
283.000000 -216.000000 65025.000000 55 80 1
284.000000 -216.000000 65023.000000 54 78 1
285.000000 -216.000000 65024.000000 53 82 1
286.000000 -216.000000 65023.000000 60 87 2
287.000000 -216.000000 65023.000000 68 90 1
288.000000 -216.000000 65023.000000 70 93 1
289.000000 -216.000000 65023.000000 72 92 1
290.000000 -216.000000 65023.000000 76 91 1
291.000000 -216.000000 65021.000000 80 96 1
292.000000 -216.000000 65022.000000 82 101 1
293.000000 -216.000000 65019.000000 85 107 4
294.000000 -216.000000 65018.000000 87 126 8
295.000000 -216.000000 65018.000000 89 119 4
296.000000 -216.000000 65016.000000 89 112 1
297.000000 -216.000000 65016.000000 90 115 1
298.000000 -216.000000 65016.000000 88 120 2
299.000000 -216.000000 65016.000000 87 117 1
300.000000 -216.000000 65016.000000 84 115 1
301.000000 -216.000000 65011.000000 82 114 1
302.000000 -216.000000 65010.000000 84 113 1
303.000000 -216.000000 65010.000000 87 117 1
304.000000 -216.000000 65009.000000 91 119 2
305.000000 -216.000000 65009.000000 96 116 1
306.000000 -216.000000 65009.000000 87 99 1
307.000000 -216.000000 65009.000000 79 91 7
246.000000 -217.000000 65006.000000 7 1 1
247.000000 -217.000000 65006.000000 13 1 1
248.000000 -217.000000 65008.000000 28 44 1
249.000000 -217.000000 65008.000000 43 62 1
250.000000 -217.000000 65009.000000 53 66 2
251.000000 -217.000000 65009.000000 64 71 1
252.000000 -217.000000 65012.000000 57 63 1
253.000000 -217.000000 65016.000000 50 65 1
254.000000 -217.000000 65017.000000 50 67 1
255.000000 -217.000000 65017.000000 50 69 1
256.000000 -217.000000 65018.000000 51 67 1
257.000000 -217.000000 65019.000000 52 65 1
258.000000 -217.000000 65020.000000 50 65 1
259.000000 -217.000000 65020.000000 48 65 1
260.000000 -217.000000 65020.000000 51 63 1
261.000000 -217.000000 65021.000000 55 62 1
262.000000 -217.000000 65021.000000 50 61 1
263.000000 -217.000000 65021.000000 46 61 1
264.000000 -217.000000 65022.000000 46 60 1
265.000000 -217.000000 65023.000000 46 59 1
266.000000 -217.000000 65023.000000 46 59 1
267.000000 -217.000000 65022.000000 46 59 1
268.000000 -217.000000 65024.000000 47 59 1
269.000000 -217.000000 65023.000000 47 60 1
270.000000 -217.000000 65025.000000 47 59 1
271.000000 -217.000000 65024.000000 48 59 1
272.000000 -217.000000 65023.000000 48 58 1
273.000000 -217.000000 65024.000000 48 58 1
274.000000 -217.000000 65025.000000 47 59 1
275.000000 -217.000000 65025.000000 46 61 1
276.000000 -217.000000 65025.000000 45 61 1
277.000000 -217.000000 65025.000000 45 62 2
278.000000 -217.000000 65025.000000 46 65 3
279.000000 -217.000000 65025.000000 47 69 2
280.000000 -217.000000 65025.000000 49 69 1
281.000000 -217.000000 65025.000000 52 69 1
282.000000 -217.000000 65025.000000 51 69 1
283.000000 -217.000000 65025.000000 50 69 1
284.000000 -217.000000 65025.000000 48 70 1
285.000000 -217.000000 65024.000000 47 72 1
286.000000 -217.000000 65024.000000 52 77 1
287.000000 -217.000000 65024.000000 57 82 1
288.000000 -217.000000 65023.000000 60 84 1
289.000000 -217.000000 65023.000000 64 87 1
290.000000 -217.000000 65023.000000 67 89 1
291.000000 -217.000000 65022.000000 69 92 1
292.000000 -217.000000 65022.000000 71 94 1
293.000000 -217.000000 65020.000000 74 96 1
294.000000 -217.000000 65019.000000 76 97 1
295.000000 -217.000000 65018.000000 79 99 1
296.000000 -217.000000 65017.000000 79 105 1
297.000000 -217.000000 65016.000000 80 112 1
298.000000 -217.000000 65016.000000 80 109 2
299.000000 -217.000000 65016.000000 80 107 1
300.000000 -217.000000 65016.000000 80 106 1
301.000000 -217.000000 65015.000000 80 106 1
302.000000 -217.000000 65011.000000 83 107 1
303.000000 -217.000000 65011.000000 86 119 2
304.000000 -217.000000 65010.000000 89 119 3
305.000000 -217.000000 65009.000000 93 121 2
306.000000 -217.000000 65009.000000 87 103 1
307.000000 -217.000000 65008.000000 81 97 1
308.000000 -217.000000 65008.000000 74 78 1
309.000000 -217.000000 65008.000000 67 51 1
246.000000 -218.000000 65006.000000 10 2 1
247.000000 -218.000000 65007.000000 18 5 1
248.000000 -218.000000 65008.000000 33 55 1
249.000000 -218.000000 65008.000000 49 65 3
250.000000 -218.000000 65009.000000 54 68 5
251.000000 -218.000000 65011.000000 60 69 3
252.000000 -218.000000 65013.000000 55 65 1
253.000000 -218.000000 65016.000000 50 64 1
254.000000 -218.000000 65017.000000 50 60 1
255.000000 -218.000000 65018.000000 51 60 1
256.000000 -218.000000 65019.000000 46 61 1
257.000000 -218.000000 65019.000000 41 64 1
258.000000 -218.000000 65020.000000 42 63 1
259.000000 -218.000000 65020.000000 44 60 1
260.000000 -218.000000 65020.000000 45 58 1
261.000000 -218.000000 65021.000000 46 61 1
262.000000 -218.000000 65021.000000 44 60 1
263.000000 -218.000000 65022.000000 42 60 1
264.000000 -218.000000 65023.000000 43 57 1
265.000000 -218.000000 65023.000000 44 58 3
266.000000 -218.000000 65026.000000 44 59 6
267.000000 -218.000000 65022.000000 44 57 3
268.000000 -218.000000 65026.000000 44 56 1
269.000000 -218.000000 65026.000000 45 57 1
270.000000 -218.000000 65026.000000 45 59 1
271.000000 -218.000000 65025.000000 45 57 1
272.000000 -218.000000 65024.000000 44 56 1
273.000000 -218.000000 65025.000000 44 57 1
274.000000 -218.000000 65025.000000 42 59 1
275.000000 -218.000000 65025.000000 41 57 1
276.000000 -218.000000 65026.000000 42 54 1
277.000000 -218.000000 65025.000000 44 62 1
278.000000 -218.000000 65025.000000 43 60 2
279.000000 -218.000000 65025.000000 42 62 1
280.000000 -218.000000 65025.000000 44 64 1
281.000000 -218.000000 65026.000000 46 62 1
282.000000 -218.000000 65026.000000 45 60 1
283.000000 -218.000000 65025.000000 45 59 1
284.000000 -218.000000 65025.000000 43 59 1
285.000000 -218.000000 65025.000000 42 59 1
286.000000 -218.000000 65024.000000 44 59 1
287.000000 -218.000000 65024.000000 46 65 1
288.000000 -218.000000 65023.000000 51 71 1
289.000000 -218.000000 65023.000000 57 83 1
290.000000 -218.000000 65023.000000 58 87 1
291.000000 -218.000000 65022.000000 59 86 1
292.000000 -218.000000 65022.000000 61 72 1
293.000000 -218.000000 65020.000000 63 74 1
294.000000 -218.000000 65019.000000 66 76 1
295.000000 -218.000000 65019.000000 69 82 1
296.000000 -218.000000 65017.000000 70 89 1
297.000000 -218.000000 65016.000000 71 95 1
298.000000 -218.000000 65016.000000 72 102 1
299.000000 -218.000000 65016.000000 74 101 1
300.000000 -218.000000 65016.000000 76 100 1
301.000000 -218.000000 65015.000000 79 101 1
302.000000 -218.000000 65012.000000 82 102 1
303.000000 -218.000000 65011.000000 85 112 7
304.000000 -218.000000 65010.000000 88 117 14
305.000000 -218.000000 65009.000000 91 112 7
306.000000 -218.000000 65009.000000 87 107 1
307.000000 -218.000000 65008.000000 84 104 1
308.000000 -218.000000 65008.000000 78 90 2
309.000000 -218.000000 65008.000000 72 68 8
246.000000 -219.000000 65006.000000 13 6 1
247.000000 -219.000000 65007.000000 24 9 1
248.000000 -219.000000 65008.000000 38 55 2
249.000000 -219.000000 65008.000000 52 68 5
250.000000 -219.000000 65009.000000 56 71 9
251.000000 -219.000000 65012.000000 61 74 5
252.000000 -219.000000 65013.000000 56 69 1
253.000000 -219.000000 65016.000000 51 64 1
254.000000 -219.000000 65016.000000 53 62 1
255.000000 -219.000000 65017.000000 55 61 1
256.000000 -219.000000 65018.000000 50 64 1
257.000000 -219.000000 65019.000000 45 67 1
258.000000 -219.000000 65020.000000 46 63 1
259.000000 -219.000000 65020.000000 47 58 1
260.000000 -219.000000 65020.000000 45 58 1
261.000000 -219.000000 65021.000000 43 61 1
262.000000 -219.000000 65022.000000 41 60 1
263.000000 -219.000000 65022.000000 39 59 1
264.000000 -219.000000 65023.000000 39 57 1
265.000000 -219.000000 65026.000000 39 56 6
266.000000 -219.000000 65026.000000 39 55 12
267.000000 -219.000000 65024.000000 39 55 6
268.000000 -219.000000 65026.000000 39 56 1
269.000000 -219.000000 65026.000000 39 54 1
270.000000 -219.000000 65026.000000 40 54 1
271.000000 -219.000000 65025.000000 41 55 1
272.000000 -219.000000 65025.000000 41 55 1
273.000000 -219.000000 65026.000000 41 55 1
274.000000 -219.000000 65026.000000 40 55 1
275.000000 -219.000000 65026.000000 39 56 1
276.000000 -219.000000 65026.000000 39 59 1
277.000000 -219.000000 65025.000000 40 62 1
278.000000 -219.000000 65025.000000 37 57 1
279.000000 -219.000000 65025.000000 34 55 1
280.000000 -219.000000 65025.000000 38 57 1
281.000000 -219.000000 65026.000000 42 59 1
282.000000 -219.000000 65026.000000 39 58 1
283.000000 -219.000000 65025.000000 35 54 1
284.000000 -219.000000 65025.000000 37 56 1
285.000000 -219.000000 65025.000000 40 47 1
286.000000 -219.000000 65024.000000 44 61 1
287.000000 -219.000000 65024.000000 48 67 1
288.000000 -219.000000 65023.000000 52 71 1
289.000000 -219.000000 65024.000000 57 80 1
290.000000 -219.000000 65023.000000 56 80 1
291.000000 -219.000000 65023.000000 55 80 1
292.000000 -219.000000 65023.000000 59 79 1
293.000000 -219.000000 65020.000000 63 78 1
294.000000 -219.000000 65019.000000 63 80 1
295.000000 -219.000000 65019.000000 63 82 1
296.000000 -219.000000 65017.000000 61 82 1
297.000000 -219.000000 65016.000000 60 83 1
298.000000 -219.000000 65016.000000 65 87 1
299.000000 -219.000000 65016.000000 70 91 1
300.000000 -219.000000 65016.000000 72 91 1
301.000000 -219.000000 65016.000000 73 91 1
302.000000 -219.000000 65012.000000 76 98 1
303.000000 -219.000000 65011.000000 78 106 13
304.000000 -219.000000 65010.000000 81 106 26
305.000000 -219.000000 65009.000000 83 106 13
306.000000 -219.000000 65009.000000 82 109 1
307.000000 -219.000000 65009.000000 81 112 2
308.000000 -219.000000 65009.000000 75 93 4
309.000000 -219.000000 65008.000000 69 85 15
251.000000 -220.000000 65013.000000 63 74 3
252.000000 -220.000000 65014.000000 58 73 1
253.000000 -220.000000 65016.000000 53 71 1
254.000000 -220.000000 65017.000000 56 70 1
255.000000 -220.000000 65017.000000 59 69 1
256.000000 -220.000000 65017.000000 54 68 1
257.000000 -220.000000 65018.000000 49 67 1
258.000000 -220.000000 65020.000000 50 63 1
259.000000 -220.000000 65020.000000 51 60 1
260.000000 -220.000000 65021.000000 46 59 1
261.000000 -220.000000 65022.000000 41 60 1
262.000000 -220.000000 65022.000000 39 62 1
263.000000 -220.000000 65023.000000 37 59 1
264.000000 -220.000000 65023.000000 35 61 1
265.000000 -220.000000 65023.000000 34 56 3
266.000000 -220.000000 65026.000000 34 53 6
267.000000 -220.000000 65026.000000 35 54 3
268.000000 -220.000000 65026.000000 34 56 1
269.000000 -220.000000 65026.000000 34 52 1
270.000000 -220.000000 65026.000000 36 52 1
271.000000 -220.000000 65026.000000 38 57 1
272.000000 -220.000000 65026.000000 38 59 1
273.000000 -220.000000 65026.000000 38 58 1
274.000000 -220.000000 65026.000000 37 57 1
275.000000 -220.000000 65026.000000 37 58 1
276.000000 -220.000000 65026.000000 37 61 1
277.000000 -220.000000 65025.000000 37 58 1
278.000000 -220.000000 65026.000000 31 55 1
279.000000 -220.000000 65026.000000 26 57 1
280.000000 -220.000000 65026.000000 32 59 1
281.000000 -220.000000 65026.000000 39 58 1
282.000000 -220.000000 65026.000000 32 57 1
283.000000 -220.000000 65025.000000 26 55 1
284.000000 -220.000000 65026.000000 32 53 1
285.000000 -220.000000 65026.000000 38 58 1
286.000000 -220.000000 65025.000000 44 63 1
287.000000 -220.000000 65025.000000 51 67 1
288.000000 -220.000000 65023.000000 54 72 1
289.000000 -220.000000 65023.000000 57 78 1
290.000000 -220.000000 65023.000000 54 79 1
291.000000 -220.000000 65022.000000 52 81 1
292.000000 -220.000000 65022.000000 57 84 1
293.000000 -220.000000 65020.000000 63 83 1
294.000000 -220.000000 65019.000000 60 83 1
295.000000 -220.000000 65019.000000 58 82 3
296.000000 -220.000000 65018.000000 53 85 5
297.000000 -220.000000 65018.000000 49 85 3
298.000000 -220.000000 65017.000000 58 86 1
299.000000 -220.000000 65017.000000 67 89 1
300.000000 -220.000000 65016.000000 67 88 1
301.000000 -220.000000 65014.000000 68 90 1
302.000000 -220.000000 65013.000000 70 84 1
303.000000 -220.000000 65012.000000 72 85 7
304.000000 -220.000000 65010.000000 74 87 13
305.000000 -220.000000 65010.000000 76 92 7
306.000000 -220.000000 65009.000000 77 98 1
307.000000 -220.000000 65009.000000 78 97 1
308.000000 -220.000000 65009.000000 72 97 2
251.000000 -221.000000 65013.000000 68 81 1
252.000000 -221.000000 65014.000000 60 79 2
253.000000 -221.000000 65016.000000 53 77 1
254.000000 -221.000000 65016.000000 53 73 1
255.000000 -221.000000 65017.000000 53 71 1
256.000000 -221.000000 65017.000000 48 67 1
257.000000 -221.000000 65018.000000 44 67 1
258.000000 -221.000000 65019.000000 42 63 2
259.000000 -221.000000 65020.000000 41 62 1
260.000000 -221.000000 65022.000000 40 59 1
261.000000 -221.000000 65022.000000 40 59 1
262.000000 -221.000000 65023.000000 37 59 1
263.000000 -221.000000 65023.000000 34 59 1
264.000000 -221.000000 65023.000000 31 60 1
265.000000 -221.000000 65023.000000 28 56 1
266.000000 -221.000000 65024.000000 30 53 1
267.000000 -221.000000 65026.000000 32 51 1
268.000000 -221.000000 65026.000000 33 53 1
269.000000 -221.000000 65025.000000 34 51 1
270.000000 -221.000000 65026.000000 35 53 1
271.000000 -221.000000 65026.000000 35 60 1
272.000000 -221.000000 65026.000000 33 61 1
273.000000 -221.000000 65026.000000 32 63 1
274.000000 -221.000000 65026.000000 36 61 1
275.000000 -221.000000 65026.000000 40 60 1
276.000000 -221.000000 65026.000000 43 58 1
277.000000 -221.000000 65025.000000 46 56 1
278.000000 -221.000000 65025.000000 42 61 1
279.000000 -221.000000 65026.000000 38 67 1
280.000000 -221.000000 65026.000000 41 70 1
281.000000 -221.000000 65026.000000 45 73 1
282.000000 -221.000000 65026.000000 45 67 1
283.000000 -221.000000 65026.000000 45 62 1
284.000000 -221.000000 65026.000000 46 67 1
285.000000 -221.000000 65026.000000 47 73 1
286.000000 -221.000000 65025.000000 52 79 1
287.000000 -221.000000 65025.000000 57 86 1
288.000000 -221.000000 65024.000000 62 81 1
289.000000 -221.000000 65023.000000 67 76 1
290.000000 -221.000000 65023.000000 63 82 1
291.000000 -221.000000 65022.000000 59 88 1
292.000000 -221.000000 65022.000000 63 88 1
293.000000 -221.000000 65020.000000 67 89 1
294.000000 -221.000000 65019.000000 67 86 1
295.000000 -221.000000 65019.000000 66 83 5
296.000000 -221.000000 65017.000000 64 87 9
297.000000 -221.000000 65017.000000 61 92 5
298.000000 -221.000000 65017.000000 65 92 1
299.000000 -221.000000 65016.000000 70 93 1
300.000000 -221.000000 65016.000000 69 91 1
301.000000 -221.000000 65015.000000 69 89 1
302.000000 -221.000000 65013.000000 70 88 1
303.000000 -221.000000 65012.000000 71 88 1
304.000000 -221.000000 65010.000000 73 90 1
305.000000 -221.000000 65009.000000 75 93 1
306.000000 -221.000000 65009.000000 75 97 1
307.000000 -221.000000 65009.000000 75 96 1
308.000000 -221.000000 65009.000000 70 93 1
309.000000 -221.000000 65009.000000 65 85 10
251.000000 -222.000000 65013.000000 74 78 1
252.000000 -222.000000 65014.000000 63 78 1
253.000000 -222.000000 65015.000000 53 77 1
254.000000 -222.000000 65016.000000 50 76 1
255.000000 -222.000000 65017.000000 47 65 1
256.000000 -222.000000 65017.000000 43 64 1
257.000000 -222.000000 65018.000000 39 64 1
258.000000 -222.000000 65020.000000 35 64 1
259.000000 -222.000000 65020.000000 32 61 1
260.000000 -222.000000 65022.000000 35 59 1
261.000000 -222.000000 65022.000000 39 58 1
262.000000 -222.000000 65023.000000 35 58 1
263.000000 -222.000000 65023.000000 32 58 1
264.000000 -222.000000 65023.000000 27 59 1
265.000000 -222.000000 65023.000000 23 59 1
266.000000 -222.000000 65024.000000 26 59 1
267.000000 -222.000000 65026.000000 30 57 1
268.000000 -222.000000 65026.000000 32 56 1
269.000000 -222.000000 65026.000000 35 55 1
270.000000 -222.000000 65026.000000 34 55 1
271.000000 -222.000000 65026.000000 33 62 5
272.000000 -222.000000 65026.000000 29 66 10
273.000000 -222.000000 65026.000000 26 68 5
274.000000 -222.000000 65026.000000 34 71 1
275.000000 -222.000000 65026.000000 43 70 1
276.000000 -222.000000 65026.000000 49 69 2
277.000000 -222.000000 65026.000000 55 75 1
278.000000 -222.000000 65026.000000 52 82 1
279.000000 -222.000000 65026.000000 50 82 1
280.000000 -222.000000 65026.000000 50 83 1
281.000000 -222.000000 65026.000000 51 88 2
282.000000 -222.000000 65026.000000 57 93 4
283.000000 -222.000000 65026.000000 64 94 3
284.000000 -222.000000 65026.000000 60 95 2
285.000000 -222.000000 65026.000000 56 96 7
286.000000 -222.000000 65025.000000 60 98 12
287.000000 -222.000000 65025.000000 64 98 7
288.000000 -222.000000 65025.000000 71 98 2
289.000000 -222.000000 65024.000000 78 97 1
290.000000 -222.000000 65023.000000 72 97 1
291.000000 -222.000000 65023.000000 66 101 1
292.000000 -222.000000 65022.000000 69 105 1
293.000000 -222.000000 65021.000000 72 101 1
294.000000 -222.000000 65020.000000 73 98 1
295.000000 -222.000000 65019.000000 75 100 3
296.000000 -222.000000 65017.000000 74 103 6
297.000000 -222.000000 65017.000000 74 98 3
298.000000 -222.000000 65016.000000 73 94 1
299.000000 -222.000000 65017.000000 73 94 1
300.000000 -222.000000 65017.000000 72 94 1
301.000000 -222.000000 65016.000000 71 95 1
302.000000 -222.000000 65013.000000 71 96 1
303.000000 -222.000000 65012.000000 71 94 1
304.000000 -222.000000 65010.000000 72 92 1
305.000000 -222.000000 65009.000000 74 94 1
306.000000 -222.000000 65008.000000 73 96 1
307.000000 -222.000000 65008.000000 73 96 1
308.000000 -222.000000 65008.000000 69 89 1
309.000000 -222.000000 65008.000000 65 78 7
251.000000 -223.000000 65012.000000 60 73 1
252.000000 -223.000000 65014.000000 54 70 1
253.000000 -223.000000 65015.000000 47 68 1
254.000000 -223.000000 65016.000000 45 64 1
255.000000 -223.000000 65017.000000 43 60 1
256.000000 -223.000000 65017.000000 40 59 1
257.000000 -223.000000 65018.000000 37 59 1
258.000000 -223.000000 65020.000000 35 63 1
259.000000 -223.000000 65021.000000 33 55 1
260.000000 -223.000000 65022.000000 38 55 1
261.000000 -223.000000 65023.000000 43 55 1
262.000000 -223.000000 65023.000000 37 56 1
263.000000 -223.000000 65023.000000 32 58 1
264.000000 -223.000000 65023.000000 28 59 1
265.000000 -223.000000 65024.000000 24 61 1
266.000000 -223.000000 65024.000000 28 60 1
267.000000 -223.000000 65025.000000 31 60 1
268.000000 -223.000000 65026.000000 34 59 1
269.000000 -223.000000 65026.000000 37 59 1
270.000000 -223.000000 65026.000000 35 61 1
271.000000 -223.000000 65026.000000 33 64 10
272.000000 -223.000000 65026.000000 32 67 19
273.000000 -223.000000 65026.000000 32 77 10
274.000000 -223.000000 65026.000000 37 75 1
275.000000 -223.000000 65026.000000 42 80 2
276.000000 -223.000000 65026.000000 46 81 4
277.000000 -223.000000 65026.000000 50 82 2
278.000000 -223.000000 65026.000000 49 81 1
279.000000 -223.000000 65025.000000 47 85 1
280.000000 -223.000000 65026.000000 48 82 1
281.000000 -223.000000 65026.000000 49 88 4
282.000000 -223.000000 65026.000000 52 90 7
283.000000 -223.000000 65026.000000 56 93 5
284.000000 -223.000000 65026.000000 55 92 3
285.000000 -223.000000 65026.000000 53 100 13
286.000000 -223.000000 65026.000000 59 103 23
287.000000 -223.000000 65026.000000 65 106 13
288.000000 -223.000000 65025.000000 69 105 3
289.000000 -223.000000 65025.000000 73 104 2
290.000000 -223.000000 65024.000000 72 104 2
291.000000 -223.000000 65023.000000 71 105 2
292.000000 -223.000000 65023.000000 73 103 2
293.000000 -223.000000 65021.000000 76 102 1
294.000000 -223.000000 65020.000000 78 109 1
295.000000 -223.000000 65020.000000 81 116 2
296.000000 -223.000000 65019.000000 81 115 3
297.000000 -223.000000 65019.000000 81 115 2
298.000000 -223.000000 65019.000000 83 110 1
299.000000 -223.000000 65017.000000 86 106 1
300.000000 -223.000000 65017.000000 82 106 1
301.000000 -223.000000 65015.000000 78 106 1
302.000000 -223.000000 65013.000000 76 101 1
303.000000 -223.000000 65013.000000 74 97 1
304.000000 -223.000000 65011.000000 72 100 1
305.000000 -223.000000 65010.000000 70 103 1
306.000000 -223.000000 65010.000000 71 99 1
307.000000 -223.000000 65009.000000 72 96 1
308.000000 -223.000000 65009.000000 67 86 1
309.000000 -223.000000 65009.000000 63 72 4
251.000000 -224.000000 65012.000000 47 70 1
252.000000 -224.000000 65013.000000 44 70 1
253.000000 -224.000000 65014.000000 42 69 1
254.000000 -224.000000 65015.000000 40 64 1
255.000000 -224.000000 65017.000000 39 62 1
256.000000 -224.000000 65017.000000 37 60 1
257.000000 -224.000000 65018.000000 36 61 1
258.000000 -224.000000 65020.000000 35 63 1
259.000000 -224.000000 65021.000000 34 59 1
260.000000 -224.000000 65022.000000 40 54 1
261.000000 -224.000000 65023.000000 47 54 1
262.000000 -224.000000 65023.000000 39 54 1
263.000000 -224.000000 65023.000000 32 59 1
264.000000 -224.000000 65023.000000 29 59 1
265.000000 -224.000000 65024.000000 26 59 1
266.000000 -224.000000 65024.000000 29 60 1
267.000000 -224.000000 65025.000000 33 60 1
268.000000 -224.000000 65026.000000 36 53 1
269.000000 -224.000000 65026.000000 40 56 1
270.000000 -224.000000 65026.000000 36 65 1
271.000000 -224.000000 65026.000000 33 67 5
272.000000 -224.000000 65026.000000 35 69 10
273.000000 -224.000000 65026.000000 38 71 5
274.000000 -224.000000 65026.000000 39 74 1
275.000000 -224.000000 65026.000000 41 78 1
276.000000 -224.000000 65026.000000 43 82 2
277.000000 -224.000000 65026.000000 46 81 1
278.000000 -224.000000 65026.000000 45 80 1
279.000000 -224.000000 65026.000000 45 80 1
280.000000 -224.000000 65026.000000 46 81 1
281.000000 -224.000000 65026.000000 47 83 2
282.000000 -224.000000 65026.000000 48 86 4
283.000000 -224.000000 65026.000000 49 88 3
284.000000 -224.000000 65026.000000 50 90 2
285.000000 -224.000000 65026.000000 51 98 8
286.000000 -224.000000 65026.000000 58 106 13
287.000000 -224.000000 65026.000000 66 105 7
288.000000 -224.000000 65026.000000 67 105 2
289.000000 -224.000000 65026.000000 69 103 1
290.000000 -224.000000 65024.000000 72 102 1
291.000000 -224.000000 65024.000000 76 100 5
292.000000 -224.000000 65023.000000 78 123 9
293.000000 -224.000000 65023.000000 80 122 5
294.000000 -224.000000 65021.000000 83 121 1
295.000000 -224.000000 65021.000000 87 118 5
296.000000 -224.000000 65019.000000 87 123 9
297.000000 -224.000000 65020.000000 88 121 5
298.000000 -224.000000 65017.000000 94 119 1
299.000000 -224.000000 65017.000000 100 118 1
300.000000 -224.000000 65017.000000 92 117 2
301.000000 -224.000000 65015.000000 85 117 11
302.000000 -224.000000 65013.000000 81 118 21
303.000000 -224.000000 65013.000000 77 116 11
304.000000 -224.000000 65011.000000 71 114 2
305.000000 -224.000000 65010.000000 66 111 1
306.000000 -224.000000 65010.000000 68 108 1
307.000000 -224.000000 65009.000000 71 103 1
308.000000 -224.000000 65009.000000 66 84 1
309.000000 -224.000000 65009.000000 61 71 3
247.000000 -225.000000 65007.000000 21 22 5
248.000000 -225.000000 65008.000000 33 64 8
249.000000 -225.000000 65008.000000 46 69 4
250.000000 -225.000000 65009.000000 44 69 1
251.000000 -225.000000 65012.000000 43 70 1
252.000000 -225.000000 65014.000000 38 70 1
253.000000 -225.000000 65015.000000 32 70 1
254.000000 -225.000000 65016.000000 34 65 1
255.000000 -225.000000 65017.000000 36 64 1
256.000000 -225.000000 65017.000000 37 65 1
257.000000 -225.000000 65018.000000 37 66 1
258.000000 -225.000000 65020.000000 36 64 1
259.000000 -225.000000 65021.000000 35 63 1
260.000000 -225.000000 65022.000000 37 58 1
261.000000 -225.000000 65023.000000 40 57 1
262.000000 -225.000000 65023.000000 35 58 1
263.000000 -225.000000 65023.000000 31 60 1
264.000000 -225.000000 65023.000000 29 58 1
265.000000 -225.000000 65025.000000 28 55 1
266.000000 -225.000000 65025.000000 30 58 1
267.000000 -225.000000 65026.000000 33 60 1
268.000000 -225.000000 65026.000000 33 53 1
269.000000 -225.000000 65026.000000 33 54 1
270.000000 -225.000000 65026.000000 30 56 1
271.000000 -225.000000 65026.000000 26 59 1
272.000000 -225.000000 65026.000000 31 61 1
273.000000 -225.000000 65026.000000 35 63 1
274.000000 -225.000000 65026.000000 35 65 1
275.000000 -225.000000 65026.000000 35 68 1
276.000000 -225.000000 65026.000000 38 69 1
277.000000 -225.000000 65026.000000 42 71 1
278.000000 -225.000000 65026.000000 40 69 1
279.000000 -225.000000 65026.000000 39 68 1
280.000000 -225.000000 65026.000000 40 68 1
281.000000 -225.000000 65026.000000 41 68 1
282.000000 -225.000000 65026.000000 41 71 1
283.000000 -225.000000 65026.000000 41 74 1
284.000000 -225.000000 65026.000000 36 71 2
285.000000 -225.000000 65026.000000 30 69 3
286.000000 -225.000000 65026.000000 41 79 4
287.000000 -225.000000 65026.000000 51 89 2
288.000000 -225.000000 65026.000000 54 91 1
289.000000 -225.000000 65026.000000 58 94 1
290.000000 -225.000000 65025.000000 59 94 1
291.000000 -225.000000 65023.000000 60 95 8
292.000000 -225.000000 65023.000000 63 104 16
293.000000 -225.000000 65023.000000 67 114 9
294.000000 -225.000000 65021.000000 69 114 2
295.000000 -225.000000 65020.000000 72 114 9
296.000000 -225.000000 65020.000000 75 118 16
297.000000 -225.000000 65020.000000 77 123 9
298.000000 -225.000000 65019.000000 81 121 2
299.000000 -225.000000 65018.000000 86 119 2
300.000000 -225.000000 65018.000000 83 121 3
301.000000 -225.000000 65017.000000 80 123 22
302.000000 -225.000000 65017.000000 78 120 42
303.000000 -225.000000 65013.000000 77 117 22
304.000000 -225.000000 65011.000000 74 119 3
305.000000 -225.000000 65010.000000 71 121 2
306.000000 -225.000000 65010.000000 76 112 2
307.000000 -225.000000 65009.000000 81 110 1
308.000000 -225.000000 65009.000000 73 95 1
309.000000 -225.000000 65009.000000 65 70 2
245.000000 -226.000000 65006.000000 2 1 2
246.000000 -226.000000 65007.000000 11 9 3
247.000000 -226.000000 65007.000000 20 22 3
248.000000 -226.000000 65008.000000 31 56 4
249.000000 -226.000000 65008.000000 42 66 2
250.000000 -226.000000 65009.000000 41 66 1
251.000000 -226.000000 65011.000000 40 68 1
252.000000 -226.000000 65013.000000 31 71 1
253.000000 -226.000000 65016.000000 23 69 1
254.000000 -226.000000 65017.000000 28 67 1
255.000000 -226.000000 65017.000000 34 65 1
256.000000 -226.000000 65018.000000 36 64 1
257.000000 -226.000000 65020.000000 39 64 2
258.000000 -226.000000 65020.000000 37 65 4
259.000000 -226.000000 65021.000000 36 62 2
260.000000 -226.000000 65022.000000 35 60 1
261.000000 -226.000000 65023.000000 34 59 1
262.000000 -226.000000 65023.000000 32 59 1
263.000000 -226.000000 65023.000000 30 58 1
264.000000 -226.000000 65024.000000 30 57 1
265.000000 -226.000000 65025.000000 30 56 2
266.000000 -226.000000 65025.000000 32 56 3
267.000000 -226.000000 65026.000000 34 55 2
268.000000 -226.000000 65026.000000 30 54 1
269.000000 -226.000000 65026.000000 27 53 1
270.000000 -226.000000 65026.000000 23 58 1
271.000000 -226.000000 65026.000000 20 57 1
272.000000 -226.000000 65026.000000 26 53 1
273.000000 -226.000000 65026.000000 33 61 1
274.000000 -226.000000 65026.000000 31 59 1
275.000000 -226.000000 65027.000000 30 58 1
276.000000 -226.000000 65027.000000 34 58 1
277.000000 -226.000000 65026.000000 38 57 1
278.000000 -226.000000 65026.000000 36 57 1
279.000000 -226.000000 65027.000000 34 56 1
280.000000 -226.000000 65026.000000 34 55 1
281.000000 -226.000000 65026.000000 35 57 1
282.000000 -226.000000 65026.000000 34 60 1
283.000000 -226.000000 65026.000000 34 60 1
284.000000 -226.000000 65026.000000 22 60 1
285.000000 -226.000000 65027.000000 10 61 2
286.000000 -226.000000 65026.000000 23 63 2
287.000000 -226.000000 65026.000000 37 67 1
288.000000 -226.000000 65026.000000 42 72 1
289.000000 -226.000000 65025.000000 47 70 1
290.000000 -226.000000 65025.000000 46 69 1
291.000000 -226.000000 65024.000000 45 76 6
292.000000 -226.000000 65023.000000 49 83 11
293.000000 -226.000000 65023.000000 54 83 6
294.000000 -226.000000 65022.000000 56 83 1
295.000000 -226.000000 65021.000000 58 86 5
296.000000 -226.000000 65020.000000 62 89 8
297.000000 -226.000000 65020.000000 67 91 5
298.000000 -226.000000 65020.000000 69 94 1
299.000000 -226.000000 65019.000000 72 101 2
300.000000 -226.000000 65019.000000 74 109 2
301.000000 -226.000000 65019.000000 76 110 12
302.000000 -226.000000 65019.000000 76 111 21
303.000000 -226.000000 65011.000000 77 115 11
304.000000 -226.000000 65011.000000 76 121 2
305.000000 -226.000000 65010.000000 76 118 13
306.000000 -226.000000 65010.000000 84 116 24
307.000000 -226.000000 65009.000000 92 111 13
308.000000 -226.000000 65009.000000 81 106 2
309.000000 -226.000000 65009.000000 70 84 5
245.000000 -227.000000 65007.000000 4 2 2
246.000000 -227.000000 65007.000000 14 12 4
247.000000 -227.000000 65008.000000 25 22 2
248.000000 -227.000000 65008.000000 35 60 1
249.000000 -227.000000 65008.000000 45 64 1
250.000000 -227.000000 65009.000000 43 65 1
251.000000 -227.000000 65011.000000 42 67 1
252.000000 -227.000000 65011.000000 36 66 1
253.000000 -227.000000 65016.000000 29 65 1
254.000000 -227.000000 65017.000000 33 65 1
255.000000 -227.000000 65017.000000 36 66 1
256.000000 -227.000000 65018.000000 34 64 1
257.000000 -227.000000 65020.000000 32 61 4
258.000000 -227.000000 65021.000000 34 58 7
259.000000 -227.000000 65022.000000 35 56 4
260.000000 -227.000000 65023.000000 34 54 1
261.000000 -227.000000 65023.000000 33 53 1
262.000000 -227.000000 65023.000000 30 51 1
263.000000 -227.000000 65024.000000 28 50 1
264.000000 -227.000000 65025.000000 28 51 1
265.000000 -227.000000 65026.000000 29 53 3
266.000000 -227.000000 65026.000000 31 53 5
267.000000 -227.000000 65026.000000 34 53 3
268.000000 -227.000000 65026.000000 32 52 1
269.000000 -227.000000 65026.000000 30 52 1
270.000000 -227.000000 65027.000000 28 53 1
271.000000 -227.000000 65026.000000 26 55 1
272.000000 -227.000000 65026.000000 29 53 1
273.000000 -227.000000 65026.000000 33 59 1
274.000000 -227.000000 65026.000000 32 57 1
275.000000 -227.000000 65027.000000 32 54 1
276.000000 -227.000000 65027.000000 35 53 1
277.000000 -227.000000 65026.000000 38 53 1
278.000000 -227.000000 65026.000000 37 57 1
279.000000 -227.000000 65026.000000 37 51 1
280.000000 -227.000000 65026.000000 37 53 1
281.000000 -227.000000 65026.000000 37 57 1
282.000000 -227.000000 65026.000000 35 58 1
283.000000 -227.000000 65026.000000 34 59 1
284.000000 -227.000000 65026.000000 26 57 1
285.000000 -227.000000 65026.000000 18 56 1
286.000000 -227.000000 65026.000000 25 59 1
287.000000 -227.000000 65026.000000 33 63 1
288.000000 -227.000000 65025.000000 37 65 1
289.000000 -227.000000 65025.000000 41 67 1
290.000000 -227.000000 65025.000000 39 63 1
291.000000 -227.000000 65024.000000 37 60 4
292.000000 -227.000000 65024.000000 42 68 7
293.000000 -227.000000 65023.000000 48 76 4
294.000000 -227.000000 65022.000000 45 80 1
295.000000 -227.000000 65021.000000 43 84 1
296.000000 -227.000000 65020.000000 51 85 1
297.000000 -227.000000 65020.000000 58 87 1
298.000000 -227.000000 65020.000000 61 92 1
299.000000 -227.000000 65019.000000 64 97 1
300.000000 -227.000000 65019.000000 67 103 2
301.000000 -227.000000 65018.000000 69 109 1
302.000000 -227.000000 65017.000000 70 111 1
303.000000 -227.000000 65017.000000 72 113 1
304.000000 -227.000000 65017.000000 70 111 1
305.000000 -227.000000 65009.000000 69 110 24
306.000000 -227.000000 65009.000000 77 110 47
307.000000 -227.000000 65009.000000 85 124 25
308.000000 -227.000000 65009.000000 78 106 4
309.000000 -227.000000 65009.000000 71 98 8
245.000000 -228.000000 65007.000000 7 1 1
246.000000 -228.000000 65007.000000 18 32 2
247.000000 -228.000000 65008.000000 30 48 1
248.000000 -228.000000 65008.000000 39 65 1
249.000000 -228.000000 65008.000000 48 64 1
250.000000 -228.000000 65009.000000 46 64 1
251.000000 -228.000000 65016.000000 45 67 1
252.000000 -228.000000 65016.000000 40 63 1
253.000000 -228.000000 65017.000000 36 63 1
254.000000 -228.000000 65017.000000 37 63 1
255.000000 -228.000000 65017.000000 39 63 1
256.000000 -228.000000 65018.000000 32 64 1
257.000000 -228.000000 65020.000000 26 59 2
258.000000 -228.000000 65021.000000 30 58 4
259.000000 -228.000000 65021.000000 35 54 2
260.000000 -228.000000 65022.000000 33 54 1
261.000000 -228.000000 65023.000000 32 51 1
262.000000 -228.000000 65023.000000 29 50 1
263.000000 -228.000000 65025.000000 26 45 1
