ply
    format ascii 1.0
    element vertex 10695
    property float x
    property float y
    property float z
    property uchar red
    property uchar green
    property uchar blue
    end_header
269.000000 -175.000000 64994.000000 88 71 6
270.000000 -175.000000 64994.000000 83 69 9
271.000000 -175.000000 64996.000000 78 65 12
272.000000 -175.000000 64997.000000 77 63 15
273.000000 -175.000000 64998.000000 76 61 14
274.000000 -175.000000 64998.000000 74 61 14
275.000000 -175.000000 64999.000000 72 53 18
276.000000 -175.000000 65000.000000 71 58 23
277.000000 -175.000000 65000.000000 71 58 33
278.000000 -175.000000 65000.000000 72 62 43
279.000000 -175.000000 65000.000000 73 67 55
280.000000 -175.000000 65001.000000 78 67 67
281.000000 -175.000000 65001.000000 83 67 49
282.000000 -175.000000 65002.000000 87 73 31
283.000000 -175.000000 65002.000000 91 80 43
284.000000 -175.000000 65001.000000 96 85 56
285.000000 -175.000000 65002.000000 101 91 66
286.000000 -175.000000 65000.000000 106 89 77
287.000000 -175.000000 65000.000000 111 88 79
288.000000 -175.000000 64998.000000 120 96 82
289.000000 -175.000000 64998.000000 129 105 88
290.000000 -175.000000 64998.000000 133 115 95
291.000000 -175.000000 64997.000000 137 126 99
292.000000 -175.000000 64997.000000 138 124 103
293.000000 -175.000000 64995.000000 140 122 110
294.000000 -175.000000 64995.000000 146 128 118
295.000000 -175.000000 64995.000000 152 134 81
268.000000 -176.000000 64994.000000 80 73 14
269.000000 -176.000000 64994.000000 84 71 12
270.000000 -176.000000 64994.000000 80 71 11
271.000000 -176.000000 64997.000000 77 70 9
272.000000 -176.000000 64998.000000 76 70 8
273.000000 -176.000000 64998.000000 76 60 7
274.000000 -176.000000 65000.000000 75 59 7
275.000000 -176.000000 65000.000000 75 56 10
276.000000 -176.000000 65000.000000 73 58 12
277.000000 -176.000000 65000.000000 71 58 22
278.000000 -176.000000 65000.000000 74 69 32
279.000000 -176.000000 65000.000000 77 65 44
280.000000 -176.000000 65001.000000 81 74 57
281.000000 -176.000000 65001.000000 86 70 48
282.000000 -176.000000 65001.000000 89 85 40
283.000000 -176.000000 65001.000000 93 79 51
284.000000 -176.000000 65001.000000 99 96 63
285.000000 -176.000000 65001.000000 106 88 66
286.000000 -176.000000 65000.000000 111 111 69
287.000000 -176.000000 64998.000000 117 92 76
288.000000 -176.000000 64998.000000 127 124 83
289.000000 -176.000000 64997.000000 138 128 88
290.000000 -176.000000 64997.000000 140 133 93
291.000000 -176.000000 64997.000000 143 133 101
292.000000 -176.000000 64997.000000 141 133 109
293.000000 -176.000000 64997.000000 140 132 116
294.000000 -176.000000 64997.000000 146 132 123
295.000000 -176.000000 64995.000000 152 141 73
268.000000 -177.000000 64994.000000 81 75 25
269.000000 -177.000000 64994.000000 86 71 19
270.000000 -177.000000 64997.000000 78 70 14
271.000000 -177.000000 64998.000000 70 69 7
272.000000 -177.000000 64997.000000 72 66 1
273.000000 -177.000000 64998.000000 75 60 1
274.000000 -177.000000 65000.000000 73 57 1
275.000000 -177.000000 65000.000000 72 54 1
276.000000 -177.000000 65000.000000 68 56 2
277.000000 -177.000000 65000.000000 65 58 11
278.000000 -177.000000 65000.000000 69 61 21
279.000000 -177.000000 65000.000000 74 64 34
280.000000 -177.000000 65000.000000 77 68 47
281.000000 -177.000000 65000.000000 81 73 48
282.000000 -177.000000 65000.000000 84 75 49
283.000000 -177.000000 65000.000000 87 78 60
284.000000 -177.000000 65000.000000 92 81 71
285.000000 -177.000000 65000.000000 97 85 66
286.000000 -177.000000 65000.000000 102 90 62
287.000000 -177.000000 65000.000000 108 96 73
288.000000 -177.000000 64999.000000 113 113 84
289.000000 -177.000000 64999.000000 118 131 88
290.000000 -177.000000 64998.000000 122 131 92
291.000000 -177.000000 64997.000000 126 131 103
292.000000 -177.000000 64997.000000 133 131 115
293.000000 -177.000000 64997.000000 140 132 121
294.000000 -177.000000 64997.000000 148 138 128
268.000000 -178.000000 64997.000000 82 77 34
269.000000 -178.000000 64997.000000 88 69 26
270.000000 -178.000000 64997.000000 76 67 19
271.000000 -178.000000 64998.000000 64 68 10
272.000000 -178.000000 64998.000000 69 63 1
273.000000 -178.000000 64998.000000 74 60 1
274.000000 -178.000000 65000.000000 72 50 2
275.000000 -178.000000 65000.000000 70 50 6
276.000000 -178.000000 65000.000000 64 50 9
277.000000 -178.000000 65000.000000 59 51 17
278.000000 -178.000000 65000.000000 65 53 24
279.000000 -178.000000 65000.000000 71 58 35
280.000000 -178.000000 65000.000000 74 58 47
281.000000 -178.000000 65000.000000 77 61 49
282.000000 -178.000000 65000.000000 79 65 52
283.000000 -178.000000 65000.000000 82 68 63
284.000000 -178.000000 65000.000000 85 71 74
285.000000 -178.000000 65001.000000 89 72 73
286.000000 -178.000000 65000.000000 94 74 73
287.000000 -178.000000 65000.000000 99 78 77
288.000000 -178.000000 65000.000000 99 83 81
289.000000 -178.000000 64998.000000 99 85 68
290.000000 -178.000000 64998.000000 104 87 56
291.000000 -178.000000 64997.000000 109 101 83
292.000000 -178.000000 64997.000000 125 115 111
293.000000 -178.000000 64997.000000 141 121 114
294.000000 -178.000000 64997.000000 150 145 117
267.000000 -179.000000 64995.000000 67 72 74
268.000000 -179.000000 64994.000000 74 70 44
269.000000 -179.000000 64996.000000 80 68 34
270.000000 -179.000000 64996.000000 75 68 24
271.000000 -179.000000 64997.000000 70 68 12
272.000000 -179.000000 64998.000000 73 63 1
273.000000 -179.000000 64999.000000 76 60 2
274.000000 -179.000000 65000.000000 73 59 4
275.000000 -179.000000 65000.000000 71 59 10
276.000000 -179.000000 65000.000000 68 53 17
277.000000 -179.000000 65001.000000 65 42 22
278.000000 -179.000000 65001.000000 70 59 28
279.000000 -179.000000 65001.000000 75 59 37
280.000000 -179.000000 65001.000000 79 60 47
281.000000 -179.000000 65001.000000 83 62 51
282.000000 -179.000000 65001.000000 86 66 56
283.000000 -179.000000 65001.000000 90 70 66
284.000000 -179.000000 65001.000000 94 75 77
285.000000 -179.000000 65001.000000 99 80 80
286.000000 -179.000000 65000.000000 104 81 84
287.000000 -179.000000 65000.000000 110 82 81
288.000000 -179.000000 65000.000000 113 84 78
289.000000 -179.000000 65000.000000 116 86 49
290.000000 -179.000000 64999.000000 117 86 20
291.000000 -179.000000 64998.000000 119 87 64
292.000000 -179.000000 64998.000000 126 98 108
293.000000 -179.000000 64998.000000 133 110 107
294.000000 -179.000000 64997.000000 136 115 107
295.000000 -179.000000 64995.000000 140 121 76
296.000000 -179.000000 64995.000000 103 91 46
297.000000 -179.000000 64995.000000 65 76 24
265.000000 -180.000000 64994.000000 17 45 33
266.000000 -180.000000 64994.000000 38 53 57
267.000000 -180.000000 64994.000000 59 56 45
268.000000 -180.000000 64994.000000 66 59 33
269.000000 -180.000000 64996.000000 73 61 30
270.000000 -180.000000 64996.000000 75 64 27
271.000000 -180.000000 64998.000000 77 64 20
272.000000 -180.000000 64999.000000 77 64 13
273.000000 -180.000000 65000.000000 78 65 27
274.000000 -180.000000 65000.000000 75 66 42
275.000000 -180.000000 65000.000000 72 59 34
276.000000 -180.000000 65000.000000 71 56 27
277.000000 -180.000000 65000.000000 71 60 27
278.000000 -180.000000 65001.000000 75 65 28
279.000000 -180.000000 65000.000000 80 63 41
280.000000 -180.000000 65000.000000 84 62 54
281.000000 -180.000000 65000.000000 89 70 55
282.000000 -180.000000 65000.000000 94 84 57
283.000000 -180.000000 65001.000000 99 76 66
284.000000 -180.000000 65000.000000 104 103 76
285.000000 -180.000000 65000.000000 109 103 83
286.000000 -180.000000 65000.000000 115 103 91
287.000000 -180.000000 65000.000000 121 109 88
288.000000 -180.000000 65000.000000 127 115 86
289.000000 -180.000000 64999.000000 134 119 67
290.000000 -180.000000 64999.000000 131 124 49
291.000000 -180.000000 64998.000000 129 106 72
292.000000 -180.000000 64998.000000 127 89 96
293.000000 -180.000000 64996.000000 125 97 90
294.000000 -180.000000 64996.000000 123 106 83
295.000000 -180.000000 64996.000000 122 112 67
296.000000 -180.000000 64996.000000 94 83 50
297.000000 -180.000000 64996.000000 67 68 35
265.000000 -181.000000 64994.000000 14 1 5
266.000000 -181.000000 64994.000000 57 25 9
267.000000 -181.000000 64995.000000 100 49 16
268.000000 -181.000000 64995.000000 98 55 23
269.000000 -181.000000 64996.000000 96 62 26
270.000000 -181.000000 64997.000000 86 63 30
271.000000 -181.000000 64998.000000 76 63 28
272.000000 -181.000000 64999.000000 76 63 26
273.000000 -181.000000 64999.000000 77 64 53
274.000000 -181.000000 65000.000000 75 66 80
275.000000 -181.000000 65000.000000 74 59 58
276.000000 -181.000000 65000.000000 73 59 37
277.000000 -181.000000 65000.000000 73 60 32
278.000000 -181.000000 65001.000000 77 64 28
279.000000 -181.000000 65000.000000 81 65 45
280.000000 -181.000000 65000.000000 86 72 62
281.000000 -181.000000 65000.000000 91 79 60
282.000000 -181.000000 65000.000000 94 85 58
283.000000 -181.000000 65000.000000 98 83 67
284.000000 -181.000000 65000.000000 103 89 76
285.000000 -181.000000 65000.000000 108 96 87
286.000000 -181.000000 65000.000000 114 102 98
287.000000 -181.000000 65000.000000 120 105 96
288.000000 -181.000000 65000.000000 127 119 94
289.000000 -181.000000 64999.000000 134 125 86
290.000000 -181.000000 64999.000000 134 125 78
291.000000 -181.000000 64998.000000 134 126 81
292.000000 -181.000000 64998.000000 137 127 85
293.000000 -181.000000 64996.000000 139 128 72
294.000000 -181.000000 64996.000000 138 115 60
295.000000 -181.000000 64996.000000 137 103 57
296.000000 -181.000000 64996.000000 97 80 55
297.000000 -181.000000 64996.000000 57 41 47
265.000000 -182.000000 64994.000000 12 6 40
266.000000 -182.000000 64994.000000 76 111 80
267.000000 -182.000000 64995.000000 141 123 83
268.000000 -182.000000 64995.000000 130 136 87
269.000000 -182.000000 64996.000000 120 93 54
270.000000 -182.000000 64997.000000 98 65 21
271.000000 -182.000000 64997.000000 76 66 20
272.000000 -182.000000 64999.000000 76 68 20
273.000000 -182.000000 65000.000000 76 64 40
274.000000 -182.000000 65000.000000 76 66 61
275.000000 -182.000000 65000.000000 76 65 45
276.000000 -182.000000 65001.000000 76 65 30
277.000000 -182.000000 65000.000000 76 64 35
278.000000 -182.000000 65001.000000 79 64 40
279.000000 -182.000000 65001.000000 83 77 63
280.000000 -182.000000 65000.000000 88 90 86
281.000000 -182.000000 65000.000000 93 88 73
282.000000 -182.000000 65000.000000 95 87 61
283.000000 -182.000000 65000.000000 98 87 70
284.000000 -182.000000 65000.000000 103 87 79
285.000000 -182.000000 65000.000000 108 98 87
286.000000 -182.000000 65000.000000 114 101 95
287.000000 -182.000000 65000.000000 120 113 93
288.000000 -182.000000 65000.000000 127 123 90
289.000000 -182.000000 65000.000000 135 125 96
290.000000 -182.000000 64999.000000 137 125 101
291.000000 -182.000000 64998.000000 140 135 98
292.000000 -182.000000 64998.000000 147 146 95
293.000000 -182.000000 64997.000000 154 141 100
294.000000 -182.000000 64997.000000 153 137 106
295.000000 -182.000000 64996.000000 152 120 71
296.000000 -182.000000 64996.000000 99 77 36
297.000000 -182.000000 64996.000000 47 27 39
267.000000 -183.000000 64996.000000 138 165 151
268.000000 -183.000000 64996.000000 129 134 152
269.000000 -183.000000 64996.000000 120 124 82
270.000000 -183.000000 64997.000000 96 66 12
271.000000 -183.000000 64998.000000 71 67 13
272.000000 -183.000000 64999.000000 73 66 14
273.000000 -183.000000 65000.000000 74 65 28
274.000000 -183.000000 65000.000000 74 63 42
275.000000 -183.000000 65001.000000 75 61 32
276.000000 -183.000000 65001.000000 75 65 23
277.000000 -183.000000 65001.000000 75 68 38
278.000000 -183.000000 65002.000000 77 71 53
279.000000 -183.000000 65001.000000 80 89 81
280.000000 -183.000000 65001.000000 83 91 110
281.000000 -183.000000 65001.000000 86 93 87
282.000000 -183.000000 65001.000000 88 90 65
283.000000 -183.000000 65001.000000 91 88 73
284.000000 -183.000000 65001.000000 98 83 82
285.000000 -183.000000 65001.000000 105 110 87
286.000000 -183.000000 65000.000000 109 99 93
287.000000 -183.000000 65000.000000 114 122 90
288.000000 -183.000000 65000.000000 126 124 87
289.000000 -183.000000 64999.000000 139 125 106
290.000000 -183.000000 64998.000000 140 127 125
291.000000 -183.000000 64998.000000 141 144 115
292.000000 -183.000000 64999.000000 145 142 106
293.000000 -183.000000 64997.000000 150 140 129
294.000000 -183.000000 64997.000000 151 138 152
295.000000 -183.000000 64997.000000 152 137 85
296.000000 -183.000000 64997.000000 100 78 18
297.000000 -183.000000 64996.000000 48 14 31
268.000000 -184.000000 64994.000000 128 133 123
269.000000 -184.000000 64994.000000 121 100 64
270.000000 -184.000000 64997.000000 94 67 6
271.000000 -184.000000 64997.000000 67 66 7
272.000000 -184.000000 64998.000000 70 65 7
273.000000 -184.000000 64999.000000 73 63 22
274.000000 -184.000000 64999.000000 73 61 37
276.000000 -184.000000 65000.000000 74 65 21
277.000000 -184.000000 65001.000000 75 63 31
278.000000 -184.000000 65001.000000 76 78 41
279.000000 -184.000000 65001.000000 77 73 64
280.000000 -184.000000 65001.000000 78 69 87
282.000000 -184.000000 65002.000000 82 72 45
283.000000 -184.000000 65002.000000 85 76 49
284.000000 -184.000000 65002.000000 94 80 53
285.000000 -184.000000 65001.000000 103 88 50
286.000000 -184.000000 65000.000000 105 97 47
287.000000 -184.000000 65000.000000 108 111 70
288.000000 -184.000000 65000.000000 125 126 93
289.000000 -184.000000 64998.000000 143 128 103
290.000000 -184.000000 64998.000000 142 130 113
291.000000 -184.000000 64998.000000 142 128 114
292.000000 -184.000000 64998.000000 144 127 115
293.000000 -184.000000 64997.000000 147 131 127
294.000000 -184.000000 64997.000000 150 147 139
295.000000 -184.000000 64997.000000 153 136 94
296.000000 -184.000000 64997.000000 101 79 48
268.000000 -185.000000 64994.000000 94 80 94
269.000000 -185.000000 64994.000000 89 77 47
270.000000 -185.000000 64996.000000 77 68 1
271.000000 -185.000000 64996.000000 64 60 1
273.000000 -185.000000 64999.000000 64 50 17
274.000000 -185.000000 64999.000000 64 51 33
276.000000 -185.000000 65000.000000 62 55 19
277.000000 -185.000000 65001.000000 59 58 24
278.000000 -185.000000 65001.000000 62 55 30
285.000000 -185.000000 65001.000000 74 74 13
286.000000 -185.000000 65000.000000 74 75 1
287.000000 -185.000000 65000.000000 74 76 50
288.000000 -185.000000 65000.000000 86 90 99
289.000000 -185.000000 64998.000000 97 104 100
290.000000 -185.000000 64997.000000 102 109 102
291.000000 -185.000000 64997.000000 106 114 113
292.000000 -185.000000 64997.000000 115 118 125
293.000000 -185.000000 64997.000000 124 123 126
294.000000 -185.000000 64997.000000 131 129 127
271.000000 -186.000000 64996.000000 62 44 3
272.000000 -186.000000 64996.000000 59 43 1
290.000000 -186.000000 64997.000000 61 76 51
291.000000 -186.000000 64997.000000 71 82 67
292.000000 -186.000000 64997.000000 86 88 83
291.000000 -187.000000 64997.000000 63 30 21
292.000000 -187.000000 64997.000000 71 65 42
276.000000 -198.000000 65020.000000 67 61 1
277.000000 -198.000000 65019.000000 65 58 3
278.000000 -198.000000 65019.000000 67 56 5
279.000000 -198.000000 65016.000000 69 55 11
280.000000 -198.000000 65014.000000 71 54 17
281.000000 -198.000000 65014.000000 74 56 27
274.000000 -199.000000 65018.000000 71 72 24
275.000000 -199.000000 65018.000000 69 76 12
276.000000 -199.000000 65019.000000 68 74 1
277.000000 -199.000000 65018.000000 68 73 5
278.000000 -199.000000 65017.000000 70 70 9
279.000000 -199.000000 65017.000000 72 67 19
280.000000 -199.000000 65016.000000 74 64 30
281.000000 -199.000000 65015.000000 76 62 42
282.000000 -199.000000 65015.000000 76 65 55
271.000000 -200.000000 65014.000000 74 72 38
272.000000 -200.000000 65016.000000 72 74 45
273.000000 -200.000000 65017.000000 70 76 29
274.000000 -200.000000 65017.000000 69 78 14
275.000000 -200.000000 65017.000000 69 80 7
276.000000 -200.000000 65018.000000 70 82 1
277.000000 -200.000000 65017.000000 71 80 3
278.000000 -200.000000 65017.000000 73 79 5
279.000000 -200.000000 65017.000000 75 83 10
280.000000 -200.000000 65016.000000 77 87 15
281.000000 -200.000000 65015.000000 79 93 21
282.000000 -200.000000 65014.000000 80 100 28
283.000000 -200.000000 65014.000000 82 95 27
289.000000 -200.000000 65014.000000 95 112 58
290.000000 -200.000000 65014.000000 114 120 81
291.000000 -200.000000 65013.000000 134 135 99
292.000000 -200.000000 65013.000000 142 157 118
293.000000 -200.000000 65013.000000 150 142 99
294.000000 -200.000000 65013.000000 130 111 81
295.000000 -200.000000 65014.000000 110 100 67
296.000000 -200.000000 65014.000000 107 89 52
268.000000 -201.000000 65013.000000 68 74 14
269.000000 -201.000000 65013.000000 64 74 18
270.000000 -201.000000 65015.000000 63 77 23
271.000000 -201.000000 65015.000000 63 80 17
272.000000 -201.000000 65016.000000 61 83 12
273.000000 -201.000000 65017.000000 59 86 8
274.000000 -201.000000 65017.000000 60 85 4
275.000000 -201.000000 65017.000000 62 85 3
276.000000 -201.000000 65017.000000 63 86 2
277.000000 -201.000000 65017.000000 65 88 1
278.000000 -201.000000 65017.000000 69 87 1
279.000000 -201.000000 65017.000000 73 87 1
280.000000 -201.000000 65017.000000 75 94 1
281.000000 -201.000000 65016.000000 78 101 1
282.000000 -201.000000 65017.000000 79 101 1
283.000000 -201.000000 65017.000000 81 102 1
284.000000 -201.000000 65017.000000 84 107 1
285.000000 -201.000000 65017.000000 87 113 2
286.000000 -201.000000 65017.000000 89 113 3
287.000000 -201.000000 65017.000000 92 113 6
288.000000 -201.000000 65017.000000 92 116 10
289.000000 -201.000000 65017.000000 93 119 54
290.000000 -201.000000 65016.000000 111 127 98
291.000000 -201.000000 65015.000000 129 138 93
292.000000 -201.000000 65014.000000 133 137 88
293.000000 -201.000000 65013.000000 138 137 86
294.000000 -201.000000 65015.000000 127 131 84
295.000000 -201.000000 65015.000000 116 125 78
296.000000 -201.000000 65014.000000 114 122 72
297.000000 -201.000000 65014.000000 112 120 40
264.000000 -202.000000 65011.000000 66 82 4
265.000000 -202.000000 65013.000000 61 77 4
266.000000 -202.000000 65013.000000 58 74 5
267.000000 -202.000000 65013.000000 56 73 6
268.000000 -202.000000 65014.000000 54 73 7
269.000000 -202.000000 65014.000000 52 75 9
270.000000 -202.000000 65015.000000 52 79 12
271.000000 -202.000000 65016.000000 53 83 9
272.000000 -202.000000 65017.000000 50 88 6
273.000000 -202.000000 65017.000000 48 86 4
274.000000 -202.000000 65017.000000 52 85 2
275.000000 -202.000000 65017.000000 56 87 2
276.000000 -202.000000 65018.000000 57 91 1
277.000000 -202.000000 65018.000000 59 88 1
278.000000 -202.000000 65017.000000 65 88 1
279.000000 -202.000000 65017.000000 71 92 1
280.000000 -202.000000 65017.000000 74 102 1
281.000000 -202.000000 65017.000000 77 102 2
282.000000 -202.000000 65017.000000 78 102 3
283.000000 -202.000000 65018.000000 80 103 2
284.000000 -202.000000 65018.000000 84 110 1
285.000000 -202.000000 65018.000000 89 113 1
286.000000 -202.000000 65018.000000 90 116 2
287.000000 -202.000000 65018.000000 92 115 6
288.000000 -202.000000 65017.000000 91 115 11
289.000000 -202.000000 65017.000000 91 115 32
290.000000 -202.000000 65017.000000 108 134 54
291.000000 -202.000000 65016.000000 125 136 54
292.000000 -202.000000 65016.000000 125 134 54
293.000000 -202.000000 65015.000000 126 133 68
294.000000 -202.000000 65015.000000 124 133 82
295.000000 -202.000000 65015.000000 123 132 76
296.000000 -202.000000 65015.000000 122 131 71
297.000000 -202.000000 65014.000000 121 127 53
263.000000 -203.000000 65013.000000 63 79 2
264.000000 -203.000000 65012.000000 58 78 1
265.000000 -203.000000 65013.000000 54 78 1
266.000000 -203.000000 65014.000000 53 77 1
267.000000 -203.000000 65014.000000 51 76 1
268.000000 -203.000000 65014.000000 48 76 1
269.000000 -203.000000 65015.000000 46 77 1
270.000000 -203.000000 65017.000000 47 82 1
271.000000 -203.000000 65017.000000 49 87 1
272.000000 -203.000000 65017.000000 46 87 1
273.000000 -203.000000 65017.000000 42 87 1
274.000000 -203.000000 65017.000000 49 88 1
275.000000 -203.000000 65018.000000 56 89 1
276.000000 -203.000000 65018.000000 57 89 1
277.000000 -203.000000 65018.000000 58 89 1
278.000000 -203.000000 65017.000000 64 91 1
279.000000 -203.000000 65017.000000 69 97 1
280.000000 -203.000000 65017.000000 72 104 1
281.000000 -203.000000 65017.000000 76 107 3
282.000000 -203.000000 65018.000000 78 103 6
283.000000 -203.000000 65019.000000 81 104 3
284.000000 -203.000000 65018.000000 84 109 1
285.000000 -203.000000 65018.000000 87 113 1
286.000000 -203.000000 65019.000000 89 116 1
287.000000 -203.000000 65018.000000 91 120 6
288.000000 -203.000000 65017.000000 91 114 12
289.000000 -203.000000 65017.000000 91 111 11
290.000000 -203.000000 65017.000000 109 138 10
291.000000 -203.000000 65016.000000 127 138 15
292.000000 -203.000000 65016.000000 126 140 21
293.000000 -203.000000 65015.000000 126 143 50
294.000000 -203.000000 65015.000000 125 138 80
295.000000 -203.000000 65014.000000 124 133 75
296.000000 -203.000000 65014.000000 126 134 71
297.000000 -203.000000 65014.000000 127 136 67
298.000000 -203.000000 65014.000000 123 128 63
263.000000 -204.000000 65013.000000 55 75 1
264.000000 -204.000000 65012.000000 51 78 1
265.000000 -204.000000 65013.000000 48 78 1
266.000000 -204.000000 65014.000000 47 79 1
267.000000 -204.000000 65015.000000 47 78 1
268.000000 -204.000000 65015.000000 43 78 1
269.000000 -204.000000 65016.000000 40 78 1
270.000000 -204.000000 65017.000000 43 85 1
271.000000 -204.000000 65017.000000 46 86 1
272.000000 -204.000000 65017.000000 41 87 1
273.000000 -204.000000 65018.000000 37 88 7
274.000000 -204.000000 65018.000000 46 91 13
275.000000 -204.000000 65018.000000 56 89 7
276.000000 -204.000000 65018.000000 57 86 1
277.000000 -204.000000 65018.000000 58 89 1
278.000000 -204.000000 65018.000000 63 95 1
279.000000 -204.000000 65018.000000 68 98 1
280.000000 -204.000000 65018.000000 71 106 1
281.000000 -204.000000 65019.000000 75 105 9
282.000000 -204.000000 65019.000000 78 104 17
283.000000 -204.000000 65019.000000 82 106 9
284.000000 -204.000000 65019.000000 83 109 1
285.000000 -204.000000 65019.000000 85 112 1
286.000000 -204.000000 65019.000000 87 117 1
287.000000 -204.000000 65018.000000 90 115 7
288.000000 -204.000000 65018.000000 90 114 14
289.000000 -204.000000 65017.000000 91 111 9
290.000000 -204.000000 65017.000000 110 143 5
291.000000 -204.000000 65017.000000 129 145 24
292.000000 -204.000000 65017.000000 127 148 43
293.000000 -204.000000 65016.000000 126 146 60
294.000000 -204.000000 65016.000000 126 144 78
295.000000 -204.000000 65015.000000 126 146 69
296.000000 -204.000000 65015.000000 130 149 60
297.000000 -204.000000 65014.000000 134 149 51
298.000000 -204.000000 65014.000000 129 149 43
262.000000 -205.000000 65013.000000 52 73 1
263.000000 -205.000000 65013.000000 50 71 1
264.000000 -205.000000 65014.000000 48 76 1
265.000000 -205.000000 65013.000000 47 76 1
266.000000 -205.000000 65015.000000 45 77 1
267.000000 -205.000000 65015.000000 44 79 1
268.000000 -205.000000 65016.000000 43 79 1
269.000000 -205.000000 65017.000000 42 79 1
270.000000 -205.000000 65017.000000 46 83 1
271.000000 -205.000000 65017.000000 51 85 1
272.000000 -205.000000 65018.000000 47 86 1
273.000000 -205.000000 65019.000000 43 90 13
274.000000 -205.000000 65019.000000 48 89 25
275.000000 -205.000000 65018.000000 53 89 13
276.000000 -205.000000 65019.000000 55 89 1
277.000000 -205.000000 65018.000000 56 90 1
278.000000 -205.000000 65018.000000 60 94 1
279.000000 -205.000000 65018.000000 65 99 1
280.000000 -205.000000 65019.000000 68 101 1
281.000000 -205.000000 65020.000000 72 104 15
282.000000 -205.000000 65020.000000 76 103 29
283.000000 -205.000000 65020.000000 80 108 15
284.000000 -205.000000 65020.000000 81 108 1
285.000000 -205.000000 65020.000000 83 111 1
286.000000 -205.000000 65020.000000 86 112 1
287.000000 -205.000000 65020.000000 89 114 8
288.000000 -205.000000 65019.000000 90 114 16
289.000000 -205.000000 65018.000000 91 111 8
290.000000 -205.000000 65017.000000 109 138 1
291.000000 -205.000000 65017.000000 127 145 33
292.000000 -205.000000 65017.000000 141 152 66
293.000000 -205.000000 65016.000000 154 159 71
294.000000 -205.000000 65016.000000 155 152 76
295.000000 -205.000000 65016.000000 156 146 62
296.000000 -205.000000 65015.000000 146 148 49
297.000000 -205.000000 65015.000000 136 151 36
298.000000 -205.000000 65015.000000 132 150 23
262.000000 -206.000000 65013.000000 49 73 1
263.000000 -206.000000 65013.000000 46 72 1
264.000000 -206.000000 65013.000000 46 74 1
265.000000 -206.000000 65013.000000 46 75 2
266.000000 -206.000000 65015.000000 44 76 4
267.000000 -206.000000 65016.000000 42 77 2
268.000000 -206.000000 65017.000000 43 83 1
269.000000 -206.000000 65018.000000 44 80 1
270.000000 -206.000000 65020.000000 50 82 1
271.000000 -206.000000 65018.000000 57 84 1
272.000000 -206.000000 65019.000000 53 86 1
273.000000 -206.000000 65020.000000 49 87 7
274.000000 -206.000000 65020.000000 50 88 13
275.000000 -206.000000 65020.000000 51 89 7
276.000000 -206.000000 65020.000000 53 90 1
277.000000 -206.000000 65020.000000 55 89 1
278.000000 -206.000000 65020.000000 58 93 1
279.000000 -206.000000 65020.000000 62 95 1
280.000000 -206.000000 65020.000000 65 98 1
281.000000 -206.000000 65020.000000 69 102 8
282.000000 -206.000000 65020.000000 74 103 15
283.000000 -206.000000 65020.000000 79 107 8
284.000000 -206.000000 65020.000000 80 108 1
285.000000 -206.000000 65020.000000 81 109 1
286.000000 -206.000000 65020.000000 85 112 2
287.000000 -206.000000 65020.000000 89 114 5
288.000000 -206.000000 65019.000000 90 114 8
289.000000 -206.000000 65019.000000 91 113 14
290.000000 -206.000000 65018.000000 108 134 20
291.000000 -206.000000 65018.000000 126 144 49
292.000000 -206.000000 65017.000000 154 177 78
293.000000 -206.000000 65017.000000 183 175 73
294.000000 -206.000000 65017.000000 184 173 69
295.000000 -206.000000 65016.000000 186 169 67
296.000000 -206.000000 65015.000000 162 166 65
297.000000 -206.000000 65015.000000 139 156 56
298.000000 -206.000000 65014.000000 135 151 48
299.000000 -206.000000 65014.000000 131 146 34
262.000000 -207.000000 65013.000000 45 71 1
263.000000 -207.000000 65013.000000 42 70 1
264.000000 -207.000000 65014.000000 41 72 1
265.000000 -207.000000 65015.000000 40 69 4
266.000000 -207.000000 65017.000000 38 72 7
267.000000 -207.000000 65017.000000 36 75 4
268.000000 -207.000000 65017.000000 36 76 1
269.000000 -207.000000 65020.000000 37 78 1
270.000000 -207.000000 65020.000000 43 78 1
271.000000 -207.000000 65019.000000 49 79 1
272.000000 -207.000000 65020.000000 45 81 1
273.000000 -207.000000 65020.000000 41 84 1
274.000000 -207.000000 65020.000000 42 83 2
275.000000 -207.000000 65020.000000 42 82 1
276.000000 -207.000000 65020.000000 46 85 1
277.000000 -207.000000 65020.000000 49 89 1
278.000000 -207.000000 65020.000000 53 91 1
279.000000 -207.000000 65020.000000 58 93 1
280.000000 -207.000000 65021.000000 64 99 1
281.000000 -207.000000 65021.000000 70 101 1
282.000000 -207.000000 65021.000000 74 103 1
283.000000 -207.000000 65020.000000 78 107 1
284.000000 -207.000000 65020.000000 79 107 1
285.000000 -207.000000 65020.000000 81 108 2
286.000000 -207.000000 65020.000000 84 112 3
287.000000 -207.000000 65020.000000 87 116 2
288.000000 -207.000000 65020.000000 88 116 1
289.000000 -207.000000 65020.000000 90 116 20
290.000000 -207.000000 65019.000000 99 128 39
291.000000 -207.000000 65019.000000 107 143 64
292.000000 -207.000000 65017.000000 135 160 90
293.000000 -207.000000 65017.000000 163 180 76
294.000000 -207.000000 65017.000000 165 168 62
295.000000 -207.000000 65017.000000 167 192 72
296.000000 -207.000000 65016.000000 152 159 82
297.000000 -207.000000 65016.000000 137 161 77
298.000000 -207.000000 65015.000000 134 151 73
299.000000 -207.000000 65014.000000 132 146 53
300.000000 -207.000000 65013.000000 126 144 33
301.000000 -207.000000 65013.000000 121 142 17
262.000000 -208.000000 65013.000000 41 69 1
263.000000 -208.000000 65015.000000 39 67 1
264.000000 -208.000000 65017.000000 36 75 1
265.000000 -208.000000 65017.000000 34 68 2
266.000000 -208.000000 65019.000000 32 67 4
267.000000 -208.000000 65019.000000 31 69 2
268.000000 -208.000000 65020.000000 30 71 1
269.000000 -208.000000 65020.000000 30 72 1
270.000000 -208.000000 65020.000000 35 74 1
271.000000 -208.000000 65020.000000 41 75 1
272.000000 -208.000000 65020.000000 37 77 1
273.000000 -208.000000 65020.000000 34 77 1
274.000000 -208.000000 65020.000000 34 78 1
275.000000 -208.000000 65020.000000 34 78 1
276.000000 -208.000000 65020.000000 39 78 1
277.000000 -208.000000 65020.000000 44 82 1
278.000000 -208.000000 65022.000000 49 87 1
279.000000 -208.000000 65021.000000 54 92 1
280.000000 -208.000000 65022.000000 62 101 1
281.000000 -208.000000 65022.000000 71 100 1
282.000000 -208.000000 65022.000000 74 104 1
283.000000 -208.000000 65021.000000 78 107 5
284.000000 -208.000000 65021.000000 79 112 9
285.000000 -208.000000 65020.000000 81 112 5
286.000000 -208.000000 65020.000000 83 112 2
287.000000 -208.000000 65020.000000 85 114 1
288.000000 -208.000000 65020.000000 87 116 1
289.000000 -208.000000 65020.000000 90 115 21
290.000000 -208.000000 65020.000000 89 123 42
291.000000 -208.000000 65020.000000 89 133 47
292.000000 -208.000000 65018.000000 116 144 52
293.000000 -208.000000 65018.000000 144 154 65
294.000000 -208.000000 65018.000000 146 164 78
295.000000 -208.000000 65017.000000 148 158 74
296.000000 -208.000000 65017.000000 142 153 70
297.000000 -208.000000 65016.000000 136 152 64
298.000000 -208.000000 65016.000000 134 151 59
299.000000 -208.000000 65015.000000 133 148 47
300.000000 -208.000000 65014.000000 127 145 36
301.000000 -208.000000 65013.000000 121 140 19
302.000000 -208.000000 65012.000000 117 140 2
303.000000 -208.000000 65012.000000 113 135 2
263.000000 -209.000000 65015.000000 32 65 1
264.000000 -209.000000 65017.000000 30 66 2
265.000000 -209.000000 65018.000000 29 68 1
266.000000 -209.000000 65019.000000 25 61 1
267.000000 -209.000000 65020.000000 22 54 1
268.000000 -209.000000 65020.000000 24 61 1
269.000000 -209.000000 65020.000000 26 68 1
270.000000 -209.000000 65020.000000 31 68 2
271.000000 -209.000000 65020.000000 37 69 1
272.000000 -209.000000 65020.000000 32 62 1
273.000000 -209.000000 65021.000000 27 55 1
274.000000 -209.000000 65021.000000 23 56 1
275.000000 -209.000000 65021.000000 20 58 1
276.000000 -209.000000 65021.000000 26 59 1
277.000000 -209.000000 65021.000000 32 60 1
278.000000 -209.000000 65022.000000 41 77 1
279.000000 -209.000000 65021.000000 50 92 1
280.000000 -209.000000 65022.000000 59 95 1
281.000000 -209.000000 65022.000000 68 99 1
282.000000 -209.000000 65022.000000 73 102 1
283.000000 -209.000000 65022.000000 78 107 9
284.000000 -209.000000 65021.000000 79 106 18
285.000000 -209.000000 65021.000000 80 106 9
286.000000 -209.000000 65020.000000 82 109 1
287.000000 -209.000000 65020.000000 84 112 1
288.000000 -209.000000 65020.000000 86 113 1
289.000000 -209.000000 65020.000000 88 114 23
290.000000 -209.000000 65020.000000 90 118 45
291.000000 -209.000000 65020.000000 92 123 29
292.000000 -209.000000 65019.000000 108 133 14
293.000000 -209.000000 65019.000000 124 140 54
294.000000 -209.000000 65018.000000 126 144 95
295.000000 -209.000000 65017.000000 129 148 76
296.000000 -209.000000 65017.000000 129 145 58
297.000000 -209.000000 65017.000000 129 142 51
298.000000 -209.000000 65017.000000 129 148 45
299.000000 -209.000000 65015.000000 129 159 42
300.000000 -209.000000 65014.000000 124 143 40
301.000000 -209.000000 65013.000000 120 138 21
302.000000 -209.000000 65012.000000 116 139 3
303.000000 -209.000000 65012.000000 113 133 2
304.000000 -209.000000 65012.000000 108 133 1
263.000000 -210.000000 65017.000000 25 49 1
264.000000 -210.000000 65017.000000 25 53 1
265.000000 -210.000000 65019.000000 25 46 1
266.000000 -210.000000 65020.000000 19 40 1
267.000000 -210.000000 65020.000000 13 39 1
268.000000 -210.000000 65020.000000 17 39 1
269.000000 -210.000000 65020.000000 22 50 1
270.000000 -210.000000 65020.000000 28 62 1
271.000000 -210.000000 65020.000000 34 56 1
272.000000 -210.000000 65021.000000 27 44 1
273.000000 -210.000000 65022.000000 21 36 1
274.000000 -210.000000 65022.000000 13 28 1
275.000000 -210.000000 65022.000000 6 39 1
276.000000 -210.000000 65022.000000 13 50 1
277.000000 -210.000000 65022.000000 21 56 1
278.000000 -210.000000 65023.000000 34 67 1
279.000000 -210.000000 65022.000000 47 85 1
280.000000 -210.000000 65022.000000 56 91 1
281.000000 -210.000000 65023.000000 66 96 1
282.000000 -210.000000 65023.000000 72 100 1
283.000000 -210.000000 65023.000000 78 103 5
284.000000 -210.000000 65022.000000 79 106 10
285.000000 -210.000000 65021.000000 80 105 5
286.000000 -210.000000 65020.000000 81 105 1
287.000000 -210.000000 65021.000000 83 110 1
288.000000 -210.000000 65020.000000 84 109 1
289.000000 -210.000000 65020.000000 86 109 16
290.000000 -210.000000 65020.000000 90 109 32
291.000000 -210.000000 65020.000000 95 119 20
292.000000 -210.000000 65019.000000 99 127 7
293.000000 -210.000000 65019.000000 104 133 27
294.000000 -210.000000 65019.000000 107 137 48
295.000000 -210.000000 65019.000000 110 139 48
296.000000 -210.000000 65018.000000 116 142 48
297.000000 -210.000000 65017.000000 123 143 44
298.000000 -210.000000 65016.000000 124 145 40
299.000000 -210.000000 65015.000000 125 143 34
300.000000 -210.000000 65014.000000 122 141 28
301.000000 -210.000000 65013.000000 119 139 15
302.000000 -210.000000 65013.000000 116 138 2
303.000000 -210.000000 65012.000000 113 133 1
304.000000 -210.000000 65010.000000 107 133 1
305.000000 -210.000000 65009.000000 101 132 3
306.000000 -210.000000 65009.000000 99 132 5
307.000000 -210.000000 65009.000000 97 115 6
263.000000 -211.000000 65017.000000 23 49 1
264.000000 -211.000000 65019.000000 22 50 1
265.000000 -211.000000 65020.000000 21 41 1
266.000000 -211.000000 65020.000000 14 33 1
267.000000 -211.000000 65020.000000 8 25 1
268.000000 -211.000000 65020.000000 13 26 1
269.000000 -211.000000 65020.000000 19 27 1
270.000000 -211.000000 65022.000000 24 50 1
271.000000 -211.000000 65022.000000 30 51 1
272.000000 -211.000000 65022.000000 25 45 1
273.000000 -211.000000 65023.000000 21 36 1
274.000000 -211.000000 65023.000000 15 29 1
275.000000 -211.000000 65023.000000 10 31 1
276.000000 -211.000000 65022.000000 17 43 1
277.000000 -211.000000 65023.000000 24 53 1
278.000000 -211.000000 65023.000000 35 67 1
279.000000 -211.000000 65023.000000 46 79 1
280.000000 -211.000000 65023.000000 55 88 1
281.000000 -211.000000 65023.000000 64 94 1
282.000000 -211.000000 65023.000000 68 95 1
283.000000 -211.000000 65023.000000 73 97 2
284.000000 -211.000000 65023.000000 75 99 3
285.000000 -211.000000 65022.000000 77 102 2
286.000000 -211.000000 65023.000000 79 104 1
287.000000 -211.000000 65023.000000 82 109 1
288.000000 -211.000000 65020.000000 83 108 1
289.000000 -211.000000 65020.000000 84 106 10
290.000000 -211.000000 65020.000000 88 109 20
291.000000 -211.000000 65020.000000 92 115 10
292.000000 -211.000000 65020.000000 97 124 1
293.000000 -211.000000 65020.000000 102 130 1
294.000000 -211.000000 65019.000000 106 132 1
295.000000 -211.000000 65019.000000 110 135 20
296.000000 -211.000000 65018.000000 114 136 39
297.000000 -211.000000 65018.000000 118 138 37
298.000000 -211.000000 65017.000000 118 136 36
299.000000 -211.000000 65016.000000 119 135 26
300.000000 -211.000000 65015.000000 118 139 17
301.000000 -211.000000 65013.000000 117 143 9
302.000000 -211.000000 65013.000000 107 138 1
303.000000 -211.000000 65013.000000 96 134 1
304.000000 -211.000000 65011.000000 95 131 2
305.000000 -211.000000 65010.000000 94 129 2
306.000000 -211.000000 65009.000000 94 131 3
307.000000 -211.000000 65009.000000 94 134 3
260.000000 -212.000000 65017.000000 17 42 1
261.000000 -212.000000 65017.000000 6 45 1
262.000000 -212.000000 65017.000000 13 47 1
263.000000 -212.000000 65017.000000 21 47 1
264.000000 -212.000000 65020.000000 19 47 1
265.000000 -212.000000 65020.000000 17 40 1
266.000000 -212.000000 65020.000000 10 26 1
267.000000 -212.000000 65020.000000 4 22 1
268.000000 -212.000000 65020.000000 10 19 1
269.000000 -212.000000 65020.000000 16 35 9
270.000000 -212.000000 65022.000000 21 39 17
271.000000 -212.000000 65023.000000 26 49 9
272.000000 -212.000000 65022.000000 24 46 1
273.000000 -212.000000 65023.000000 22 43 1
274.000000 -212.000000 65023.000000 18 30 1
275.000000 -212.000000 65023.000000 14 33 1
276.000000 -212.000000 65023.000000 21 37 1
277.000000 -212.000000 65023.000000 28 51 1
278.000000 -212.000000 65023.000000 36 67 1
279.000000 -212.000000 65023.000000 45 79 1
280.000000 -212.000000 65023.000000 54 85 1
281.000000 -212.000000 65023.000000 63 91 1
282.000000 -212.000000 65023.000000 65 95 2
283.000000 -212.000000 65023.000000 68 95 10
284.000000 -212.000000 65023.000000 71 95 18
285.000000 -212.000000 65023.000000 75 98 13
286.000000 -212.000000 65023.000000 78 104 9
287.000000 -212.000000 65023.000000 81 105 8
288.000000 -212.000000 65023.000000 82 107 7
289.000000 -212.000000 65021.000000 83 106 9
290.000000 -212.000000 65021.000000 86 110 12
291.000000 -212.000000 65021.000000 90 115 6
292.000000 -212.000000 65020.000000 95 122 1
293.000000 -212.000000 65020.000000 101 126 1
294.000000 -212.000000 65020.000000 106 131 1
295.000000 -212.000000 65020.000000 111 132 17
296.000000 -212.000000 65019.000000 112 134 34
297.000000 -212.000000 65019.000000 114 133 33
298.000000 -212.000000 65017.000000 113 132 33
299.000000 -212.000000 65016.000000 113 133 42
300.000000 -212.000000 65015.000000 114 138 51
301.000000 -212.000000 65015.000000 116 136 33
302.000000 -212.000000 65015.000000 98 120 15
303.000000 -212.000000 65014.000000 80 118 10
304.000000 -212.000000 65016.000000 83 116 5
305.000000 -212.000000 65013.000000 87 117 4
306.000000 -212.000000 65011.000000 89 119 3
307.000000 -212.000000 65011.000000 92 122 3
257.000000 -213.000000 65016.000000 44 68 1
258.000000 -213.000000 65016.000000 37 55 1
259.000000 -213.000000 65017.000000 30 46 1
260.000000 -213.000000 65017.000000 24 46 1
261.000000 -213.000000 65017.000000 18 46 1
262.000000 -213.000000 65017.000000 21 50 1
263.000000 -213.000000 65018.000000 24 53 1
264.000000 -213.000000 65019.000000 23 45 1
265.000000 -213.000000 65020.000000 23 40 1
266.000000 -213.000000 65020.000000 18 40 1
267.000000 -213.000000 65020.000000 12 40 1
268.000000 -213.000000 65022.000000 17 41 1
269.000000 -213.000000 65022.000000 21 43 17
270.000000 -213.000000 65023.000000 24 45 34
271.000000 -213.000000 65023.000000 28 47 17
272.000000 -213.000000 65023.000000 26 48 1
273.000000 -213.000000 65023.000000 25 50 1
274.000000 -213.000000 65023.000000 24 45 1
275.000000 -213.000000 65023.000000 24 40 1
276.000000 -213.000000 65023.000000 28 45 1
277.000000 -213.000000 65023.000000 32 50 1
278.000000 -213.000000 65023.000000 39 66 1
279.000000 -213.000000 65023.000000 47 80 1
280.000000 -213.000000 65023.000000 53 84 2
281.000000 -213.000000 65023.000000 59 88 2
282.000000 -213.000000 65023.000000 62 89 3
283.000000 -213.000000 65023.000000 66 90 18
284.000000 -213.000000 65023.000000 68 92 33
285.000000 -213.000000 65023.000000 70 94 25
286.000000 -213.000000 65023.000000 73 94 17
287.000000 -213.000000 65023.000000 75 95 15
288.000000 -213.000000 65023.000000 77 99 14
289.000000 -213.000000 65022.000000 80 103 9
290.000000 -213.000000 65022.000000 83 105 4
291.000000 -213.000000 65021.000000 86 116 3
292.000000 -213.000000 65021.000000 90 122 2
293.000000 -213.000000 65020.000000 95 121 1
294.000000 -213.000000 65020.000000 101 124 1
295.000000 -213.000000 65020.000000 106 127 15
296.000000 -213.000000 65020.000000 107 127 29
297.000000 -213.000000 65019.000000 109 128 29
298.000000 -213.000000 65019.000000 108 130 30
299.000000 -213.000000 65017.000000 108 129 57
300.000000 -213.000000 65017.000000 109 129 85
301.000000 -213.000000 65016.000000 109 129 57
302.000000 -213.000000 65016.000000 98 120 30
303.000000 -213.000000 65014.000000 86 115 19
304.000000 -213.000000 65011.000000 86 112 8
305.000000 -213.000000 65010.000000 85 109 5
306.000000 -213.000000 65009.000000 86 112 3
307.000000 -213.000000 65009.000000 86 115 3
252.000000 -214.000000 65009.000000 21 1 1
253.000000 -214.000000 65010.000000 41 42 3
254.000000 -214.000000 65010.000000 45 78 6
255.000000 -214.000000 65010.000000 50 79 3
256.000000 -214.000000 65013.000000 46 73 1
257.000000 -214.000000 65016.000000 42 68 1
258.000000 -214.000000 65016.000000 37 56 1
259.000000 -214.000000 65017.000000 33 53 1
260.000000 -214.000000 65017.000000 31 51 1
261.000000 -214.000000 65018.000000 30 52 1
262.000000 -214.000000 65018.000000 28 53 1
263.000000 -214.000000 65019.000000 27 52 1
264.000000 -214.000000 65020.000000 28 44 1
265.000000 -214.000000 65020.000000 30 46 1
266.000000 -214.000000 65020.000000 25 48 1
267.000000 -214.000000 65021.000000 21 47 1
268.000000 -214.000000 65022.000000 24 47 1
269.000000 -214.000000 65022.000000 27 48 9
270.000000 -214.000000 65023.000000 28 50 17
271.000000 -214.000000 65023.000000 30 51 9
272.000000 -214.000000 65023.000000 29 53 1
273.000000 -214.000000 65023.000000 28 51 2
274.000000 -214.000000 65024.000000 31 50 4
275.000000 -214.000000 65023.000000 34 50 2
276.000000 -214.000000 65023.000000 35 51 1
277.000000 -214.000000 65023.000000 36 54 1
278.000000 -214.000000 65023.000000 42 65 1
279.000000 -214.000000 65023.000000 49 75 1
280.000000 -214.000000 65023.000000 52 83 1
281.000000 -214.000000 65023.000000 56 84 1
282.000000 -214.000000 65023.000000 60 85 2
283.000000 -214.000000 65023.000000 64 88 9
284.000000 -214.000000 65023.000000 65 90 17
285.000000 -214.000000 65023.000000 66 90 13
286.000000 -214.000000 65023.000000 68 91 9
287.000000 -214.000000 65023.000000 70 92 8
288.000000 -214.000000 65023.000000 73 93 7
289.000000 -214.000000 65023.000000 77 100 5
290.000000 -214.000000 65023.000000 79 101 2
291.000000 -214.000000 65022.000000 82 106 2
292.000000 -214.000000 65021.000000 86 122 1
293.000000 -214.000000 65020.000000 90 118 1
294.000000 -214.000000 65020.000000 96 114 1
295.000000 -214.000000 65020.000000 102 114 11
296.000000 -214.000000 65020.000000 103 115 20
297.000000 -214.000000 65019.000000 104 127 18
298.000000 -214.000000 65019.000000 104 133 16
299.000000 -214.000000 65017.000000 104 127 32
300.000000 -214.000000 65017.000000 103 128 48
301.000000 -214.000000 65016.000000 103 124 32
302.000000 -214.000000 65016.000000 98 120 15
303.000000 -214.000000 65017.000000 93 116 10
304.000000 -214.000000 65017.000000 88 110 4
305.000000 -214.000000 65010.000000 84 109 3
306.000000 -214.000000 65010.000000 82 109 2
307.000000 -214.000000 65010.000000 81 110 2
252.000000 -215.000000 65009.000000 23 28 1
253.000000 -215.000000 65010.000000 41 61 5
254.000000 -215.000000 65011.000000 48 73 9
255.000000 -215.000000 65012.000000 56 80 5
256.000000 -215.000000 65013.000000 50 70 1
257.000000 -215.000000 65016.000000 44 68 1
258.000000 -215.000000 65016.000000 40 63 1
259.000000 -215.000000 65017.000000 37 58 1
260.000000 -215.000000 65017.000000 36 60 2
261.000000 -215.000000 65018.000000 35 63 1
262.000000 -215.000000 65018.000000 33 55 1
263.000000 -215.000000 65019.000000 31 51 1
264.000000 -215.000000 65020.000000 31 49 1
265.000000 -215.000000 65020.000000 32 48 1
266.000000 -215.000000 65020.000000 27 48 1
267.000000 -215.000000 65023.000000 23 53 1
268.000000 -215.000000 65023.000000 24 53 1
269.000000 -215.000000 65023.000000 26 53 1
270.000000 -215.000000 65024.000000 28 51 1
271.000000 -215.000000 65025.000000 30 63 1
272.000000 -215.000000 65024.000000 31 61 1
273.000000 -215.000000 65024.000000 32 59 4
274.000000 -215.000000 65024.000000 33 60 8
275.000000 -215.000000 65024.000000 35 62 4
276.000000 -215.000000 65023.000000 34 60 1
277.000000 -215.000000 65023.000000 33 58 1
278.000000 -215.000000 65023.000000 38 62 1
279.000000 -215.000000 65023.000000 43 71 1
280.000000 -215.000000 65023.000000 47 74 1
281.000000 -215.000000 65024.000000 50 77 1
282.000000 -215.000000 65024.000000 52 81 1
283.000000 -215.000000 65024.000000 55 86 1
284.000000 -215.000000 65024.000000 55 82 1
285.000000 -215.000000 65023.000000 56 79 1
286.000000 -215.000000 65023.000000 59 83 1
287.000000 -215.000000 65023.000000 63 88 1
288.000000 -215.000000 65023.000000 65 93 1
289.000000 -215.000000 65023.000000 67 98 1
290.000000 -215.000000 65023.000000 69 97 1
291.000000 -215.000000 65023.000000 71 97 1
292.000000 -215.000000 65022.000000 74 102 1
293.000000 -215.000000 65021.000000 78 107 1
294.000000 -215.000000 65020.000000 80 105 2
295.000000 -215.000000 65020.000000 83 104 7
296.000000 -215.000000 65020.000000 88 108 12
297.000000 -215.000000 65020.000000 93 127 7
298.000000 -215.000000 65019.000000 94 126 3
299.000000 -215.000000 65018.000000 95 125 7
300.000000 -215.000000 65017.000000 95 123 12
301.000000 -215.000000 65017.000000 96 121 6
302.000000 -215.000000 65017.000000 93 119 1
303.000000 -215.000000 65017.000000 90 118 1
304.000000 -215.000000 65016.000000 86 112 1
305.000000 -215.000000 65016.000000 83 111 1
306.000000 -215.000000 65010.000000 78 108 1
307.000000 -215.000000 65010.000000 74 106 1
252.000000 -216.000000 65010.000000 25 56 1
253.000000 -216.000000 65010.000000 41 66 3
254.000000 -216.000000 65012.000000 52 69 5
255.000000 -216.000000 65013.000000 63 68 3
256.000000 -216.000000 65014.000000 54 67 1
257.000000 -216.000000 65016.000000 46 68 1
258.000000 -216.000000 65016.000000 44 68 1
259.000000 -216.000000 65017.000000 42 63 1
260.000000 -216.000000 65017.000000 41 63 1
261.000000 -216.000000 65018.000000 41 60 1
262.000000 -216.000000 65019.000000 38 58 1
263.000000 -216.000000 65020.000000 36 52 1
264.000000 -216.000000 65020.000000 35 50 1
265.000000 -216.000000 65023.000000 34 49 1
266.000000 -216.000000 65023.000000 29 49 1
267.000000 -216.000000 65023.000000 25 54 1
268.000000 -216.000000 65024.000000 25 59 1
269.000000 -216.000000 65024.000000 25 52 1
270.000000 -216.000000 65025.000000 28 53 1
271.000000 -216.000000 65025.000000 31 56 1
272.000000 -216.000000 65025.000000 33 59 1
273.000000 -216.000000 65025.000000 36 58 2
274.000000 -216.000000 65025.000000 36 57 4
275.000000 -216.000000 65024.000000 37 57 2
276.000000 -216.000000 65024.000000 33 58 1
277.000000 -216.000000 65023.000000 30 58 1
278.000000 -216.000000 65023.000000 34 59 1
279.000000 -216.000000 65024.000000 38 57 1
280.000000 -216.000000 65023.000000 41 56 1
281.000000 -216.000000 65024.000000 45 59 1
282.000000 -216.000000 65024.000000 45 63 1
283.000000 -216.000000 65024.000000 46 63 1
284.000000 -216.000000 65024.000000 46 64 2
285.000000 -216.000000 65023.000000 47 65 1
286.000000 -216.000000 65023.000000 51 67 1
287.000000 -216.000000 65023.000000 56 67 1
288.000000 -216.000000 65023.000000 57 67 2
289.000000 -216.000000 65023.000000 58 74 6
290.000000 -216.000000 65023.000000 59 81 10
291.000000 -216.000000 65023.000000 60 81 7
292.000000 -216.000000 65022.000000 63 81 4
293.000000 -216.000000 65021.000000 66 82 10
294.000000 -216.000000 65021.000000 65 84 16
295.000000 -216.000000 65020.000000 65 92 11
296.000000 -216.000000 65020.000000 74 101 6
297.000000 -216.000000 65020.000000 83 101 4
298.000000 -216.000000 65019.000000 84 101 2
299.000000 -216.000000 65019.000000 86 111 4
300.000000 -216.000000 65018.000000 88 122 6
301.000000 -216.000000 65017.000000 90 120 3
302.000000 -216.000000 65017.000000 89 119 1
303.000000 -216.000000 65017.000000 88 117 1
304.000000 -216.000000 65016.000000 85 115 1
305.000000 -216.000000 65016.000000 82 106 1
306.000000 -216.000000 65012.000000 74 99 1
307.000000 -216.000000 65012.000000 67 105 1
308.000000 -216.000000 65010.000000 82 107 1
309.000000 -216.000000 65010.000000 98 105 7
252.000000 -217.000000 65010.000000 31 60 2
253.000000 -217.000000 65011.000000 46 71 1
254.000000 -217.000000 65012.000000 51 68 1
255.000000 -217.000000 65013.000000 57 65 1
256.000000 -217.000000 65014.000000 51 67 1
