ply
    format ascii 1.0
    element vertex 10546
    property float x
    property float y
    property float z
    property uchar red
    property uchar green
    property uchar blue
    end_header
281.000000 -303.000000 65038.000000 56 23 1
282.000000 -303.000000 65038.000000 48 14 1
283.000000 -303.000000 65038.000000 41 10 1
284.000000 -303.000000 65038.000000 41 21 1
285.000000 -303.000000 65039.000000 41 35 1
286.000000 -303.000000 65038.000000 39 42 1
287.000000 -303.000000 65039.000000 37 49 1
288.000000 -303.000000 65039.000000 46 54 2
289.000000 -303.000000 65038.000000 55 61 1
290.000000 -303.000000 65038.000000 48 58 1
291.000000 -303.000000 65038.000000 41 56 5
292.000000 -303.000000 65037.000000 28 30 10
293.000000 -303.000000 65037.000000 16 4 5
294.000000 -303.000000 65037.000000 27 42 1
295.000000 -303.000000 65037.000000 39 47 1
296.000000 -303.000000 65031.000000 47 51 1
297.000000 -303.000000 65031.000000 55 56 1
298.000000 -303.000000 65030.000000 40 36 1
299.000000 -303.000000 65029.000000 25 16 1
300.000000 -303.000000 65029.000000 29 11 1
301.000000 -303.000000 65028.000000 34 15 9
302.000000 -303.000000 65028.000000 38 26 18
303.000000 -303.000000 65026.000000 43 37 13
304.000000 -303.000000 65025.000000 49 39 8
305.000000 -303.000000 65023.000000 55 42 8
306.000000 -303.000000 65023.000000 48 33 9
307.000000 -303.000000 65022.000000 42 24 9
308.000000 -303.000000 65020.000000 44 56 9
309.000000 -303.000000 65018.000000 47 82 6
310.000000 -303.000000 65017.000000 52 94 3
311.000000 -303.000000 65017.000000 57 92 2
312.000000 -303.000000 65017.000000 60 82 1
313.000000 -303.000000 65016.000000 63 82 1
314.000000 -303.000000 65016.000000 70 80 1
315.000000 -303.000000 65016.000000 76 79 2
254.000000 -304.000000 65032.000000 59 52 26
255.000000 -304.000000 65032.000000 62 52 13
256.000000 -304.000000 65033.000000 52 51 1
257.000000 -304.000000 65033.000000 43 50 1
258.000000 -304.000000 65033.000000 39 50 1
259.000000 -304.000000 65033.000000 35 50 1
260.000000 -304.000000 65035.000000 32 53 2
261.000000 -304.000000 65035.000000 30 49 1
262.000000 -304.000000 65035.000000 26 48 1
263.000000 -304.000000 65035.000000 22 49 1
264.000000 -304.000000 65035.000000 32 50 1
265.000000 -304.000000 65035.000000 43 45 4
266.000000 -304.000000 65035.000000 37 42 8
267.000000 -304.000000 65035.000000 32 41 4
268.000000 -304.000000 65035.000000 30 41 1
269.000000 -304.000000 65035.000000 29 41 1
270.000000 -304.000000 65036.000000 30 41 1
271.000000 -304.000000 65037.000000 31 40 1
272.000000 -304.000000 65036.000000 35 30 1
273.000000 -304.000000 65036.000000 40 16 1
274.000000 -304.000000 65037.000000 51 8 1
275.000000 -304.000000 65037.000000 63 13 1
276.000000 -304.000000 65037.000000 58 27 1
277.000000 -304.000000 65037.000000 54 32 10
278.000000 -304.000000 65037.000000 53 34 20
279.000000 -304.000000 65037.000000 53 32 10
280.000000 -304.000000 65038.000000 56 28 1
281.000000 -304.000000 65038.000000 60 20 1
282.000000 -304.000000 65038.000000 50 12 1
283.000000 -304.000000 65038.000000 40 16 1
284.000000 -304.000000 65038.000000 38 21 1
285.000000 -304.000000 65038.000000 36 38 1
286.000000 -304.000000 65038.000000 35 44 1
287.000000 -304.000000 65039.000000 35 52 1
288.000000 -304.000000 65039.000000 40 55 1
289.000000 -304.000000 65038.000000 46 58 1
290.000000 -304.000000 65038.000000 41 56 1
291.000000 -304.000000 65038.000000 37 58 3
292.000000 -304.000000 65038.000000 33 1 5
293.000000 -304.000000 65037.000000 30 19 3
294.000000 -304.000000 65037.000000 40 56 1
295.000000 -304.000000 65037.000000 51 62 1
296.000000 -304.000000 65031.000000 64 69 1
297.000000 -304.000000 65029.000000 77 66 2
298.000000 -304.000000 65029.000000 58 64 3
299.000000 -304.000000 65029.000000 39 30 2
300.000000 -304.000000 65029.000000 43 8 1
301.000000 -304.000000 65028.000000 47 38 6
302.000000 -304.000000 65027.000000 56 89 11
303.000000 -304.000000 65026.000000 65 90 9
304.000000 -304.000000 65025.000000 72 92 7
305.000000 -304.000000 65024.000000 79 74 6
306.000000 -304.000000 65023.000000 60 56 5
307.000000 -304.000000 65023.000000 42 33 5
308.000000 -304.000000 65022.000000 40 32 5
309.000000 -304.000000 65019.000000 39 58 3
310.000000 -304.000000 65017.000000 44 93 2
311.000000 -304.000000 65017.000000 50 85 1
312.000000 -304.000000 65017.000000 56 79 1
313.000000 -304.000000 65017.000000 63 78 1
314.000000 -304.000000 65016.000000 69 77 1
315.000000 -304.000000 65016.000000 75 76 3
254.000000 -305.000000 65032.000000 56 53 38
255.000000 -305.000000 65032.000000 58 53 19
256.000000 -305.000000 65033.000000 48 51 1
257.000000 -305.000000 65033.000000 39 50 1
258.000000 -305.000000 65033.000000 34 50 1
259.000000 -305.000000 65033.000000 29 50 1
260.000000 -305.000000 65035.000000 29 50 1
261.000000 -305.000000 65035.000000 28 51 1
262.000000 -305.000000 65035.000000 26 50 1
263.000000 -305.000000 65035.000000 24 50 1
264.000000 -305.000000 65035.000000 31 49 1
265.000000 -305.000000 65035.000000 38 48 1
266.000000 -305.000000 65035.000000 36 45 1
267.000000 -305.000000 65035.000000 34 42 1
268.000000 -305.000000 65035.000000 31 44 1
269.000000 -305.000000 65035.000000 29 46 1
270.000000 -305.000000 65035.000000 30 44 1
271.000000 -305.000000 65037.000000 32 42 1
272.000000 -305.000000 65036.000000 36 30 1
273.000000 -305.000000 65037.000000 40 15 1
274.000000 -305.000000 65037.000000 48 10 1
275.000000 -305.000000 65037.000000 56 9 1
276.000000 -305.000000 65037.000000 52 22 1
277.000000 -305.000000 65038.000000 49 31 1
278.000000 -305.000000 65038.000000 51 31 1
279.000000 -305.000000 65038.000000 52 31 1
280.000000 -305.000000 65038.000000 53 27 1
281.000000 -305.000000 65038.000000 55 17 1
282.000000 -305.000000 65038.000000 48 18 1
283.000000 -305.000000 65038.000000 41 20 1
284.000000 -305.000000 65038.000000 37 24 1
285.000000 -305.000000 65038.000000 34 42 1
286.000000 -305.000000 65038.000000 33 45 1
287.000000 -305.000000 65039.000000 33 55 1
288.000000 -305.000000 65039.000000 40 58 1
289.000000 -305.000000 65039.000000 47 62 1
290.000000 -305.000000 65038.000000 47 61 1
291.000000 -305.000000 65038.000000 47 61 1
292.000000 -305.000000 65038.000000 47 47 1
293.000000 -305.000000 65038.000000 47 34 1
294.000000 -305.000000 65038.000000 46 56 1
295.000000 -305.000000 65038.000000 46 76 1
296.000000 -305.000000 65032.000000 50 76 2
297.000000 -305.000000 65029.000000 55 77 3
298.000000 -305.000000 65029.000000 47 60 5
299.000000 -305.000000 65029.000000 39 45 3
300.000000 -305.000000 65029.000000 43 53 1
301.000000 -305.000000 65028.000000 48 62 3
302.000000 -305.000000 65027.000000 52 74 5
303.000000 -305.000000 65026.000000 56 95 6
304.000000 -305.000000 65025.000000 62 88 7
305.000000 -305.000000 65025.000000 68 86 4
306.000000 -305.000000 65024.000000 58 71 2
307.000000 -305.000000 65023.000000 49 42 1
308.000000 -305.000000 65023.000000 36 38 1
309.000000 -305.000000 65020.000000 23 34 1
310.000000 -305.000000 65017.000000 32 56 1
311.000000 -305.000000 65017.000000 42 78 1
312.000000 -305.000000 65017.000000 52 72 1
313.000000 -305.000000 65016.000000 62 67 1
314.000000 -305.000000 65016.000000 69 77 1
315.000000 -305.000000 65016.000000 77 74 4
254.000000 -306.000000 65032.000000 53 55 24
255.000000 -306.000000 65032.000000 54 52 12
256.000000 -306.000000 65033.000000 44 51 1
257.000000 -306.000000 65032.000000 35 51 1
258.000000 -306.000000 65033.000000 29 55 1
259.000000 -306.000000 65033.000000 24 48 1
260.000000 -306.000000 65035.000000 25 48 1
261.000000 -306.000000 65035.000000 27 47 1
262.000000 -306.000000 65035.000000 26 46 1
263.000000 -306.000000 65035.000000 26 46 1
264.000000 -306.000000 65035.000000 29 46 1
265.000000 -306.000000 65035.000000 33 47 1
266.000000 -306.000000 65035.000000 34 49 1
267.000000 -306.000000 65035.000000 36 50 1
268.000000 -306.000000 65035.000000 33 51 1
269.000000 -306.000000 65035.000000 30 48 1
270.000000 -306.000000 65036.000000 31 56 1
271.000000 -306.000000 65037.000000 33 39 1
272.000000 -306.000000 65037.000000 36 31 1
273.000000 -306.000000 65037.000000 40 13 3
274.000000 -306.000000 65037.000000 44 12 5
275.000000 -306.000000 65037.000000 49 9 3
276.000000 -306.000000 65037.000000 47 17 1
277.000000 -306.000000 65038.000000 45 24 1
278.000000 -306.000000 65038.000000 48 31 1
279.000000 -306.000000 65038.000000 52 28 1
280.000000 -306.000000 65038.000000 51 26 1
281.000000 -306.000000 65038.000000 50 14 1
282.000000 -306.000000 65038.000000 46 19 1
283.000000 -306.000000 65038.000000 42 16 1
284.000000 -306.000000 65038.000000 37 28 1
285.000000 -306.000000 65038.000000 32 37 1
286.000000 -306.000000 65038.000000 31 46 1
287.000000 -306.000000 65039.000000 31 55 2
288.000000 -306.000000 65039.000000 40 65 3
289.000000 -306.000000 65039.000000 49 67 6
290.000000 -306.000000 65038.000000 53 69 9
291.000000 -306.000000 65038.000000 57 70 5
292.000000 -306.000000 65038.000000 61 72 1
293.000000 -306.000000 65037.000000 65 64 1
294.000000 -306.000000 65037.000000 53 57 1
295.000000 -306.000000 65037.000000 41 46 1
296.000000 -306.000000 65032.000000 37 36 1
297.000000 -306.000000 65032.000000 34 46 2
298.000000 -306.000000 65031.000000 36 56 3
299.000000 -306.000000 65029.000000 39 53 2
300.000000 -306.000000 65029.000000 44 51 1
301.000000 -306.000000 65028.000000 49 56 12
302.000000 -306.000000 65028.000000 48 60 23
303.000000 -306.000000 65026.000000 47 72 13
304.000000 -306.000000 65025.000000 52 84 4
305.000000 -306.000000 65025.000000 58 85 3
306.000000 -306.000000 65024.000000 57 86 2
307.000000 -306.000000 65023.000000 56 64 1
308.000000 -306.000000 65022.000000 31 41 1
309.000000 -306.000000 65020.000000 7 34 2
310.000000 -306.000000 65018.000000 20 28 4
311.000000 -306.000000 65017.000000 34 46 2
312.000000 -306.000000 65017.000000 48 65 1
313.000000 -306.000000 65017.000000 62 72 1
314.000000 -306.000000 65016.000000 70 78 2
315.000000 -306.000000 65016.000000 79 78 9
255.000000 -307.000000 65032.000000 57 49 6
256.000000 -307.000000 65034.000000 47 52 1
257.000000 -307.000000 65032.000000 37 53 1
258.000000 -307.000000 65033.000000 30 53 1
259.000000 -307.000000 65034.000000 24 46 1
260.000000 -307.000000 65035.000000 29 45 1
261.000000 -307.000000 65035.000000 34 45 1
262.000000 -307.000000 65035.000000 31 44 1
263.000000 -307.000000 65035.000000 28 44 1
264.000000 -307.000000 65035.000000 29 43 1
265.000000 -307.000000 65035.000000 31 42 1
266.000000 -307.000000 65035.000000 35 45 1
267.000000 -307.000000 65035.000000 40 48 1
268.000000 -307.000000 65035.000000 30 49 1
269.000000 -307.000000 65036.000000 21 50 1
270.000000 -307.000000 65036.000000 26 50 1
271.000000 -307.000000 65037.000000 31 36 1
272.000000 -307.000000 65037.000000 35 26 1
273.000000 -307.000000 65037.000000 40 12 5
274.000000 -307.000000 65037.000000 44 11 9
275.000000 -307.000000 65037.000000 48 10 5
276.000000 -307.000000 65037.000000 47 13 1
277.000000 -307.000000 65038.000000 47 16 1
278.000000 -307.000000 65038.000000 49 15 1
279.000000 -307.000000 65038.000000 51 15 1
280.000000 -307.000000 65038.000000 50 13 2
281.000000 -307.000000 65038.000000 48 12 1
282.000000 -307.000000 65038.000000 45 12 1
283.000000 -307.000000 65038.000000 41 12 1
284.000000 -307.000000 65038.000000 36 21 1
285.000000 -307.000000 65038.000000 31 32 1
286.000000 -307.000000 65038.000000 27 44 1
287.000000 -307.000000 65039.000000 24 55 3
288.000000 -307.000000 65039.000000 35 63 6
289.000000 -307.000000 65039.000000 47 77 11
290.000000 -307.000000 65038.000000 52 73 17
291.000000 -307.000000 65038.000000 56 69 9
292.000000 -307.000000 65038.000000 57 73 2
293.000000 -307.000000 65037.000000 57 73 1
294.000000 -307.000000 65037.000000 48 55 1
295.000000 -307.000000 65034.000000 38 45 1
296.000000 -307.000000 65034.000000 32 45 1
297.000000 -307.000000 65029.000000 25 46 1
298.000000 -307.000000 65029.000000 32 54 1
299.000000 -307.000000 65029.000000 39 53 1
300.000000 -307.000000 65029.000000 43 53 1
301.000000 -307.000000 65028.000000 46 53 21
302.000000 -307.000000 65028.000000 38 53 41
303.000000 -307.000000 65026.000000 30 47 21
304.000000 -307.000000 65026.000000 40 62 2
305.000000 -307.000000 65025.000000 50 77 2
306.000000 -307.000000 65024.000000 55 83 3
307.000000 -307.000000 65023.000000 61 87 2
308.000000 -307.000000 65022.000000 46 71 1
309.000000 -307.000000 65020.000000 31 55 4
310.000000 -307.000000 65020.000000 36 45 7
311.000000 -307.000000 65017.000000 42 13 4
312.000000 -307.000000 65017.000000 53 70 1
313.000000 -307.000000 65017.000000 65 80 2
314.000000 -307.000000 65017.000000 71 74 3
315.000000 -307.000000 65017.000000 78 70 14
255.000000 -308.000000 65032.000000 61 48 9
256.000000 -308.000000 65034.000000 50 54 1
257.000000 -308.000000 65034.000000 40 52 1
258.000000 -308.000000 65034.000000 32 51 1
259.000000 -308.000000 65034.000000 24 48 1
260.000000 -308.000000 65035.000000 32 43 1
261.000000 -308.000000 65035.000000 41 43 1
262.000000 -308.000000 65035.000000 35 44 1
263.000000 -308.000000 65035.000000 30 44 1
264.000000 -308.000000 65035.000000 30 39 1
265.000000 -308.000000 65035.000000 30 39 3
266.000000 -308.000000 65035.000000 37 40 6
267.000000 -308.000000 65035.000000 44 48 3
268.000000 -308.000000 65036.000000 28 39 1
269.000000 -308.000000 65036.000000 12 48 1
270.000000 -308.000000 65036.000000 21 45 1
271.000000 -308.000000 65037.000000 30 39 1
272.000000 -308.000000 65037.000000 35 21 1
273.000000 -308.000000 65037.000000 40 13 3
274.000000 -308.000000 65038.000000 43 10 5
275.000000 -308.000000 65037.000000 47 10 3
276.000000 -308.000000 65037.000000 48 10 1
277.000000 -308.000000 65038.000000 49 14 1
278.000000 -308.000000 65038.000000 50 17 1
279.000000 -308.000000 65038.000000 51 16 1
280.000000 -308.000000 65038.000000 49 10 2
281.000000 -308.000000 65038.000000 47 11 1
282.000000 -308.000000 65038.000000 44 7 1
283.000000 -308.000000 65038.000000 41 10 1
284.000000 -308.000000 65038.000000 36 14 1
285.000000 -308.000000 65038.000000 31 32 1
286.000000 -308.000000 65038.000000 24 42 1
287.000000 -308.000000 65039.000000 17 55 2
288.000000 -308.000000 65039.000000 31 62 3
289.000000 -308.000000 65038.000000 46 72 6
290.000000 -308.000000 65038.000000 51 78 9
291.000000 -308.000000 65038.000000 56 73 5
292.000000 -308.000000 65038.000000 53 74 1
293.000000 -308.000000 65036.000000 50 70 1
294.000000 -308.000000 65036.000000 43 53 1
295.000000 -308.000000 65034.000000 36 41 1
296.000000 -308.000000 65034.000000 26 2 1
297.000000 -308.000000 65032.000000 17 37 2
298.000000 -308.000000 65029.000000 28 52 3
299.000000 -308.000000 65029.000000 40 49 4
300.000000 -308.000000 65029.000000 42 47 5
301.000000 -308.000000 65028.000000 44 50 20
302.000000 -308.000000 65028.000000 29 54 35
303.000000 -308.000000 65027.000000 14 42 18
304.000000 -308.000000 65026.000000 28 19 1
305.000000 -308.000000 65025.000000 42 52 1
306.000000 -308.000000 65025.000000 54 80 2
307.000000 -308.000000 65023.000000 67 86 1
308.000000 -308.000000 65022.000000 61 86 1
309.000000 -308.000000 65020.000000 56 74 2
310.000000 -308.000000 65019.000000 53 63 4
311.000000 -308.000000 65017.000000 50 69 2
312.000000 -308.000000 65017.000000 59 75 1
313.000000 -308.000000 65017.000000 68 81 2
314.000000 -308.000000 65017.000000 72 71 3
315.000000 -308.000000 65017.000000 77 73 19
256.000000 -309.000000 65033.000000 47 47 1
257.000000 -309.000000 65032.000000 39 48 1
258.000000 -309.000000 65034.000000 33 50 1
259.000000 -309.000000 65035.000000 27 51 1
260.000000 -309.000000 65035.000000 31 43 1
261.000000 -309.000000 65035.000000 36 42 1
262.000000 -309.000000 65035.000000 33 45 1
263.000000 -309.000000 65035.000000 31 45 1
264.000000 -309.000000 65035.000000 31 42 1
265.000000 -309.000000 65035.000000 32 40 6
266.000000 -309.000000 65035.000000 35 44 11
267.000000 -309.000000 65036.000000 39 48 6
268.000000 -309.000000 65036.000000 30 47 1
269.000000 -309.000000 65036.000000 22 46 1
270.000000 -309.000000 65036.000000 27 45 1
271.000000 -309.000000 65036.000000 32 42 1
272.000000 -309.000000 65036.000000 35 25 1
273.000000 -309.000000 65037.000000 38 15 1
274.000000 -309.000000 65037.000000 41 6 1
275.000000 -309.000000 65037.000000 45 5 1
276.000000 -309.000000 65037.000000 47 7 2
277.000000 -309.000000 65038.000000 50 12 1
278.000000 -309.000000 65038.000000 51 18 1
279.000000 -309.000000 65038.000000 52 17 2
280.000000 -309.000000 65038.000000 50 12 3
281.000000 -309.000000 65038.000000 49 10 2
282.000000 -309.000000 65038.000000 45 6 1
283.000000 -309.000000 65038.000000 41 4 1
284.000000 -309.000000 65038.000000 38 14 1
285.000000 -309.000000 65038.000000 34 32 1
286.000000 -309.000000 65039.000000 30 42 1
287.000000 -309.000000 65039.000000 26 55 1
288.000000 -309.000000 65039.000000 37 58 1
289.000000 -309.000000 65039.000000 48 68 1
290.000000 -309.000000 65039.000000 53 70 1
291.000000 -309.000000 65038.000000 59 73 1
292.000000 -309.000000 65038.000000 56 73 1
293.000000 -309.000000 65036.000000 52 68 1
294.000000 -309.000000 65035.000000 46 60 1
295.000000 -309.000000 65035.000000 40 37 1
296.000000 -309.000000 65035.000000 34 32 1
297.000000 -309.000000 65034.000000 28 28 3
298.000000 -309.000000 65033.000000 30 32 5
299.000000 -309.000000 65033.000000 33 36 7
300.000000 -309.000000 65029.000000 38 39 9
301.000000 -309.000000 65029.000000 44 43 19
302.000000 -309.000000 65028.000000 38 40 29
303.000000 -309.000000 65028.000000 32 37 15
304.000000 -309.000000 65028.000000 38 32 1
305.000000 -309.000000 65026.000000 43 28 1
306.000000 -309.000000 65025.000000 58 77 1
307.000000 -309.000000 65023.000000 72 85 1
308.000000 -309.000000 65022.000000 65 83 1
309.000000 -309.000000 65022.000000 59 81 1
310.000000 -309.000000 65020.000000 56 76 1
311.000000 -309.000000 65020.000000 54 72 1
312.000000 -309.000000 65018.000000 60 77 1
313.000000 -309.000000 65018.000000 67 82 2
314.000000 -309.000000 65018.000000 72 79 3
315.000000 -309.000000 65017.000000 77 77 25
253.000000 -310.000000 65029.000000 44 43 6
254.000000 -310.000000 65029.000000 46 42 12
255.000000 -310.000000 65029.000000 48 48 6
256.000000 -310.000000 65033.000000 43 50 1
257.000000 -310.000000 65032.000000 39 49 1
258.000000 -310.000000 65034.000000 34 49 1
259.000000 -310.000000 65035.000000 30 46 1
260.000000 -310.000000 65035.000000 31 44 1
261.000000 -310.000000 65035.000000 32 45 1
262.000000 -310.000000 65035.000000 32 46 1
263.000000 -310.000000 65035.000000 32 44 1
264.000000 -310.000000 65035.000000 33 44 1
265.000000 -310.000000 65036.000000 34 45 3
266.000000 -310.000000 65036.000000 34 51 6
267.000000 -310.000000 65036.000000 34 47 3
268.000000 -310.000000 65037.000000 33 46 1
269.000000 -310.000000 65037.000000 32 46 1
270.000000 -310.000000 65037.000000 33 46 2
271.000000 -310.000000 65037.000000 34 39 1
272.000000 -310.000000 65037.000000 35 30 1
273.000000 -310.000000 65037.000000 36 12 1
274.000000 -310.000000 65037.000000 39 3 1
275.000000 -310.000000 65037.000000 43 3 4
276.000000 -310.000000 65037.000000 47 4 8
277.000000 -310.000000 65038.000000 51 15 4
278.000000 -310.000000 65038.000000 52 20 1
279.000000 -310.000000 65038.000000 53 17 7
280.000000 -310.000000 65038.000000 52 14 14
281.000000 -310.000000 65038.000000 51 11 8
282.000000 -310.000000 65038.000000 46 6 2
283.000000 -310.000000 65038.000000 42 2 1
284.000000 -310.000000 65038.000000 40 15 1
285.000000 -310.000000 65038.000000 38 31 1
286.000000 -310.000000 65039.000000 36 42 1
287.000000 -310.000000 65039.000000 35 54 1
288.000000 -310.000000 65039.000000 42 55 1
289.000000 -310.000000 65039.000000 50 66 1
290.000000 -310.000000 65039.000000 56 68 1
291.000000 -310.000000 65039.000000 63 73 1
292.000000 -310.000000 65038.000000 59 72 1
293.000000 -310.000000 65037.000000 55 69 1
294.000000 -310.000000 65037.000000 49 67 1
295.000000 -310.000000 65036.000000 44 49 3
296.000000 -310.000000 65035.000000 41 18 5
297.000000 -310.000000 65034.000000 39 22 4
298.000000 -310.000000 65033.000000 32 26 3
299.000000 -310.000000 65030.000000 26 26 10
300.000000 -310.000000 65029.000000 35 26 17
301.000000 -310.000000 65028.000000 45 59 23
302.000000 -310.000000 65028.000000 48 91 29
303.000000 -310.000000 65027.000000 51 54 15
304.000000 -310.000000 65026.000000 48 3 2
305.000000 -310.000000 65025.000000 45 25 18
306.000000 -310.000000 65025.000000 61 74 34
307.000000 -310.000000 65023.000000 78 84 17
308.000000 -310.000000 65022.000000 70 79 1
309.000000 -310.000000 65020.000000 62 82 1
310.000000 -310.000000 65020.000000 60 83 1
311.000000 -310.000000 65019.000000 58 85 1
312.000000 -310.000000 65018.000000 62 87 1
313.000000 -310.000000 65018.000000 67 83 3
314.000000 -310.000000 65018.000000 72 83 5
315.000000 -310.000000 65017.000000 77 74 16
253.000000 -311.000000 65029.000000 47 46 1
254.000000 -311.000000 65029.000000 47 47 1
255.000000 -311.000000 65029.000000 47 49 1
256.000000 -311.000000 65032.000000 43 51 1
257.000000 -311.000000 65031.000000 39 53 1
258.000000 -311.000000 65032.000000 35 48 1
259.000000 -311.000000 65033.000000 31 44 1
260.000000 -311.000000 65035.000000 28 45 1
261.000000 -311.000000 65035.000000 25 47 1
262.000000 -311.000000 65035.000000 27 46 1
263.000000 -311.000000 65035.000000 30 43 1
264.000000 -311.000000 65035.000000 32 43 1
265.000000 -311.000000 65035.000000 34 47 1
266.000000 -311.000000 65035.000000 35 46 1
267.000000 -311.000000 65036.000000 35 46 1
268.000000 -311.000000 65037.000000 34 46 1
269.000000 -311.000000 65037.000000 32 46 2
270.000000 -311.000000 65037.000000 35 45 3
271.000000 -311.000000 65037.000000 38 36 2
272.000000 -311.000000 65037.000000 36 30 1
273.000000 -311.000000 65038.000000 35 10 1
274.000000 -311.000000 65038.000000 40 3 1
275.000000 -311.000000 65038.000000 44 2 7
276.000000 -311.000000 65038.000000 48 9 14
277.000000 -311.000000 65038.000000 52 19 7
278.000000 -311.000000 65038.000000 54 22 1
279.000000 -311.000000 65038.000000 57 30 13
280.000000 -311.000000 65038.000000 54 18 26
281.000000 -311.000000 65038.000000 51 13 14
282.000000 -311.000000 65038.000000 46 8 3
283.000000 -311.000000 65038.000000 42 1 2
284.000000 -311.000000 65038.000000 40 13 1
285.000000 -311.000000 65038.000000 38 30 1
286.000000 -311.000000 65039.000000 38 42 1
287.000000 -311.000000 65039.000000 38 54 1
288.000000 -311.000000 65039.000000 44 56 2
289.000000 -311.000000 65039.000000 51 65 2
290.000000 -311.000000 65039.000000 55 71 2
291.000000 -311.000000 65038.000000 59 73 1
292.000000 -311.000000 65038.000000 58 72 1
293.000000 -311.000000 65037.000000 57 79 1
294.000000 -311.000000 65036.000000 55 75 1
295.000000 -311.000000 65036.000000 54 61 5
296.000000 -311.000000 65035.000000 51 52 10
297.000000 -311.000000 65033.000000 49 44 5
298.000000 -311.000000 65032.000000 36 42 1
299.000000 -311.000000 65031.000000 23 40 13
300.000000 -311.000000 65031.000000 35 30 25
301.000000 -311.000000 65029.000000 48 76 27
302.000000 -311.000000 65028.000000 53 74 30
303.000000 -311.000000 65027.000000 57 72 16
304.000000 -311.000000 65026.000000 55 47 3
305.000000 -311.000000 65025.000000 54 23 35
306.000000 -311.000000 65025.000000 64 82 67
307.000000 -311.000000 65023.000000 74 84 34
308.000000 -311.000000 65022.000000 68 84 1
309.000000 -311.000000 65021.000000 62 85 1
310.000000 -311.000000 65020.000000 61 86 1
311.000000 -311.000000 65020.000000 61 87 1
312.000000 -311.000000 65019.000000 64 86 1
313.000000 -311.000000 65019.000000 67 84 4
314.000000 -311.000000 65019.000000 72 80 7
254.000000 -312.000000 65029.000000 48 52 3
255.000000 -312.000000 65030.000000 47 53 2
256.000000 -312.000000 65032.000000 43 54 1
257.000000 -312.000000 65032.000000 39 50 1
258.000000 -312.000000 65033.000000 36 48 1
259.000000 -312.000000 65034.000000 33 47 1
260.000000 -312.000000 65035.000000 25 47 1
261.000000 -312.000000 65035.000000 18 46 1
262.000000 -312.000000 65035.000000 23 46 1
263.000000 -312.000000 65035.000000 28 43 1
264.000000 -312.000000 65035.000000 31 42 1
265.000000 -312.000000 65035.000000 35 43 1
266.000000 -312.000000 65036.000000 36 44 1
267.000000 -312.000000 65036.000000 37 44 1
268.000000 -312.000000 65037.000000 35 44 1
269.000000 -312.000000 65037.000000 33 44 1
270.000000 -312.000000 65037.000000 37 45 2
271.000000 -312.000000 65037.000000 42 39 1
272.000000 -312.000000 65037.000000 38 30 1
273.000000 -312.000000 65038.000000 35 15 1
274.000000 -312.000000 65038.000000 40 4 1
275.000000 -312.000000 65038.000000 46 6 4
276.000000 -312.000000 65038.000000 49 15 7
277.000000 -312.000000 65038.000000 53 19 4
278.000000 -312.000000 65038.000000 57 25 1
279.000000 -312.000000 65038.000000 61 24 8
280.000000 -312.000000 65038.000000 56 23 14
281.000000 -312.000000 65038.000000 51 12 8
282.000000 -312.000000 65038.000000 46 11 3
283.000000 -312.000000 65038.000000 42 11 2
284.000000 -312.000000 65039.000000 40 12 1
285.000000 -312.000000 65039.000000 38 27 1
286.000000 -312.000000 65039.000000 39 43 1
287.000000 -312.000000 65039.000000 41 50 1
288.000000 -312.000000 65040.000000 47 58 1
289.000000 -312.000000 65039.000000 53 66 1
290.000000 -312.000000 65039.000000 54 74 1
291.000000 -312.000000 65038.000000 56 73 1
292.000000 -312.000000 65038.000000 57 72 1
293.000000 -312.000000 65037.000000 59 80 1
294.000000 -312.000000 65036.000000 61 83 1
295.000000 -312.000000 65036.000000 64 86 6
296.000000 -312.000000 65035.000000 62 90 11
297.000000 -312.000000 65034.000000 60 72 9
298.000000 -312.000000 65033.000000 40 54 8
299.000000 -312.000000 65032.000000 20 36 10
300.000000 -312.000000 65032.000000 36 34 13
301.000000 -312.000000 65030.000000 52 66 14
302.000000 -312.000000 65027.000000 58 77 15
303.000000 -312.000000 65026.000000 64 78 8
304.000000 -312.000000 65025.000000 63 80 2
305.000000 -312.000000 65025.000000 63 85 19
306.000000 -312.000000 65024.000000 67 90 36
307.000000 -312.000000 65023.000000 71 86 18
308.000000 -312.000000 65022.000000 67 84 1
309.000000 -312.000000 65021.000000 63 85 1
310.000000 -312.000000 65020.000000 63 87 1
311.000000 -312.000000 65020.000000 64 87 1
312.000000 -312.000000 65019.000000 66 85 2
313.000000 -312.000000 65018.000000 68 82 6
314.000000 -312.000000 65018.000000 72 78 10
315.000000 -312.000000 65018.000000 77 73 6
254.000000 -313.000000 65029.000000 51 57 6
255.000000 -313.000000 65029.000000 48 58 3
256.000000 -313.000000 65031.000000 42 53 1
257.000000 -313.000000 65030.000000 37 48 1
258.000000 -313.000000 65033.000000 33 45 1
259.000000 -313.000000 65034.000000 30 42 1
260.000000 -313.000000 65035.000000 27 44 1
261.000000 -313.000000 65035.000000 25 45 1
262.000000 -313.000000 65035.000000 26 46 1
263.000000 -313.000000 65035.000000 27 44 1
264.000000 -313.000000 65035.000000 30 44 1
265.000000 -313.000000 65035.000000 34 44 1
266.000000 -313.000000 65036.000000 35 44 2
267.000000 -313.000000 65036.000000 37 45 1
268.000000 -313.000000 65037.000000 31 44 1
269.000000 -313.000000 65037.000000 26 49 1
270.000000 -313.000000 65038.000000 31 46 1
271.000000 -313.000000 65037.000000 37 43 1
272.000000 -313.000000 65037.000000 37 31 1
273.000000 -313.000000 65038.000000 37 21 1
274.000000 -313.000000 65038.000000 41 6 1
275.000000 -313.000000 65038.000000 45 11 1
276.000000 -313.000000 65038.000000 48 15 1
277.000000 -313.000000 65038.000000 51 19 1
278.000000 -313.000000 65038.000000 53 25 2
279.000000 -313.000000 65038.000000 56 21 2
280.000000 -313.000000 65038.000000 52 20 3
281.000000 -313.000000 65038.000000 49 12 3
282.000000 -313.000000 65038.000000 44 11 3
283.000000 -313.000000 65038.000000 40 7 2
284.000000 -313.000000 65039.000000 37 10 1
285.000000 -313.000000 65039.000000 34 24 1
286.000000 -313.000000 65039.000000 37 34 1
287.000000 -313.000000 65040.000000 39 46 1
288.000000 -313.000000 65040.000000 44 57 1
289.000000 -313.000000 65040.000000 50 67 1
290.000000 -313.000000 65039.000000 51 73 1
291.000000 -313.000000 65038.000000 53 69 1
292.000000 -313.000000 65038.000000 55 73 1
293.000000 -313.000000 65038.000000 58 82 1
294.000000 -313.000000 65037.000000 61 87 2
295.000000 -313.000000 65036.000000 64 94 7
296.000000 -313.000000 65036.000000 63 90 12
297.000000 -313.000000 65035.000000 61 86 14
298.000000 -313.000000 65033.000000 48 64 16
299.000000 -313.000000 65032.000000 35 32 8
300.000000 -313.000000 65032.000000 45 38 1
301.000000 -313.000000 65030.000000 56 57 1
302.000000 -313.000000 65026.000000 61 82 1
303.000000 -313.000000 65026.000000 66 87 1
304.000000 -313.000000 65025.000000 66 87 1
305.000000 -313.000000 65025.000000 67 87 3
306.000000 -313.000000 65024.000000 67 88 5
307.000000 -313.000000 65023.000000 67 88 3
308.000000 -313.000000 65022.000000 63 88 1
309.000000 -313.000000 65021.000000 59 89 1
310.000000 -313.000000 65020.000000 61 88 1
311.000000 -313.000000 65020.000000 63 88 2
312.000000 -313.000000 65019.000000 64 86 3
313.000000 -313.000000 65019.000000 66 80 8
314.000000 -313.000000 65018.000000 73 78 13
315.000000 -313.000000 65018.000000 79 74 7
254.000000 -314.000000 65029.000000 54 60 33
255.000000 -314.000000 65029.000000 49 57 17
256.000000 -314.000000 65031.000000 42 52 1
257.000000 -314.000000 65031.000000 35 48 1
258.000000 -314.000000 65033.000000 31 40 1
259.000000 -314.000000 65034.000000 27 43 1
260.000000 -314.000000 65035.000000 29 44 1
261.000000 -314.000000 65035.000000 32 45 2
262.000000 -314.000000 65035.000000 29 46 4
263.000000 -314.000000 65036.000000 26 45 2
264.000000 -314.000000 65036.000000 29 44 1
265.000000 -314.000000 65037.000000 33 43 1
266.000000 -314.000000 65037.000000 35 48 1
267.000000 -314.000000 65037.000000 37 45 1
268.000000 -314.000000 65037.000000 28 45 1
269.000000 -314.000000 65037.000000 19 46 1
270.000000 -314.000000 65038.000000 25 48 1
271.000000 -314.000000 65037.000000 32 43 2
272.000000 -314.000000 65038.000000 35 32 4
273.000000 -314.000000 65038.000000 39 21 2
274.000000 -314.000000 65038.000000 42 9 1
275.000000 -314.000000 65038.000000 45 9 1
276.000000 -314.000000 65038.000000 47 16 1
277.000000 -314.000000 65038.000000 50 15 1
278.000000 -314.000000 65038.000000 50 26 1
279.000000 -314.000000 65038.000000 51 17 11
280.000000 -314.000000 65038.000000 49 17 21
281.000000 -314.000000 65038.000000 47 12 11
282.000000 -314.000000 65038.000000 43 11 2
283.000000 -314.000000 65038.000000 39 10 1
284.000000 -314.000000 65039.000000 35 9 1
285.000000 -314.000000 65039.000000 31 18 1
286.000000 -314.000000 65039.000000 34 25 1
287.000000 -314.000000 65040.000000 38 46 1
288.000000 -314.000000 65040.000000 42 56 1
289.000000 -314.000000 65040.000000 47 67 1
290.000000 -314.000000 65040.000000 48 73 1
291.000000 -314.000000 65038.000000 50 73 1
292.000000 -314.000000 65038.000000 53 74 1
293.000000 -314.000000 65038.000000 57 82 1
294.000000 -314.000000 65037.000000 61 92 1
295.000000 -314.000000 65036.000000 65 91 4
296.000000 -314.000000 65035.000000 64 91 7
297.000000 -314.000000 65035.000000 63 91 8
298.000000 -314.000000 65033.000000 56 74 8
299.000000 -314.000000 65032.000000 50 58 5
300.000000 -314.000000 65032.000000 55 43 1
301.000000 -314.000000 65030.000000 60 74 1
302.000000 -314.000000 65026.000000 64 88 1
303.000000 -314.000000 65026.000000 68 87 1
304.000000 -314.000000 65025.000000 70 87 1
305.000000 -314.000000 65025.000000 72 87 11
306.000000 -314.000000 65024.000000 68 89 21
307.000000 -314.000000 65023.000000 64 89 11
308.000000 -314.000000 65023.000000 60 90 1
309.000000 -314.000000 65021.000000 56 90 1
310.000000 -314.000000 65020.000000 59 90 1
311.000000 -314.000000 65020.000000 62 89 1
312.000000 -314.000000 65019.000000 63 87 2
313.000000 -314.000000 65018.000000 65 82 6
314.000000 -314.000000 65018.000000 73 78 11
315.000000 -314.000000 65018.000000 82 74 18
253.000000 -315.000000 65029.000000 67 62 39
254.000000 -315.000000 65029.000000 58 58 61
255.000000 -315.000000 65030.000000 49 57 31
256.000000 -315.000000 65031.000000 43 52 1
257.000000 -315.000000 65032.000000 37 49 1
258.000000 -315.000000 65034.000000 33 46 1
259.000000 -315.000000 65035.000000 28 44 1
260.000000 -315.000000 65035.000000 32 43 1
261.000000 -315.000000 65035.000000 37 46 4
262.000000 -315.000000 65036.000000 33 46 7
263.000000 -315.000000 65037.000000 29 46 4
264.000000 -315.000000 65037.000000 32 44 1
265.000000 -315.000000 65037.000000 35 42 1
266.000000 -315.000000 65037.000000 37 42 1
267.000000 -315.000000 65037.000000 39 42 1
268.000000 -315.000000 65038.000000 31 42 1
269.000000 -315.000000 65037.000000 23 43 1
270.000000 -315.000000 65038.000000 28 43 1
271.000000 -315.000000 65038.000000 33 44 4
272.000000 -315.000000 65038.000000 35 34 7
273.000000 -315.000000 65038.000000 38 21 4
274.000000 -315.000000 65038.000000 40 11 1
275.000000 -315.000000 65038.000000 43 7 1
276.000000 -315.000000 65038.000000 45 9 1
277.000000 -315.000000 65038.000000 48 12 1
278.000000 -315.000000 65038.000000 48 12 1
279.000000 -315.000000 65038.000000 48 13 20
280.000000 -315.000000 65038.000000 46 12 39
281.000000 -315.000000 65038.000000 45 12 20
282.000000 -315.000000 65038.000000 40 7 1
283.000000 -315.000000 65038.000000 36 3 1
284.000000 -315.000000 65039.000000 34 6 1
285.000000 -315.000000 65039.000000 33 13 1
286.000000 -315.000000 65039.000000 35 25 1
287.000000 -315.000000 65040.000000 38 47 1
288.000000 -315.000000 65040.000000 42 55 1
289.000000 -315.000000 65040.000000 46 68 1
290.000000 -315.000000 65040.000000 48 73 2
291.000000 -315.000000 65038.000000 50 76 1
292.000000 -315.000000 65038.000000 54 73 1
293.000000 -315.000000 65038.000000 57 82 1
294.000000 -315.000000 65037.000000 62 84 1
295.000000 -315.000000 65037.000000 66 87 2
296.000000 -315.000000 65036.000000 67 92 3
297.000000 -315.000000 65035.000000 68 96 2
298.000000 -315.000000 65033.000000 64 80 1
299.000000 -315.000000 65032.000000 59 81 1
300.000000 -315.000000 65032.000000 63 86 2
301.000000 -315.000000 65031.000000 68 91 1
302.000000 -315.000000 65026.000000 68 87 1
303.000000 -315.000000 65026.000000 69 89 1
304.000000 -315.000000 65025.000000 69 88 1
305.000000 -315.000000 65025.000000 69 88 19
306.000000 -315.000000 65024.000000 68 89 38
307.000000 -315.000000 65023.000000 66 89 20
308.000000 -315.000000 65023.000000 63 89 2
309.000000 -315.000000 65022.000000 60 84 1
310.000000 -315.000000 65020.000000 62 89 1
311.000000 -315.000000 65020.000000 63 90 1
312.000000 -315.000000 65019.000000 60 87 1
313.000000 -315.000000 65018.000000 57 85 5
314.000000 -315.000000 65018.000000 68 81 10
315.000000 -315.000000 65018.000000 79 74 29
253.000000 -316.000000 65029.000000 76 57 20
254.000000 -316.000000 65029.000000 62 55 31
255.000000 -316.000000 65030.000000 49 53 16
256.000000 -316.000000 65031.000000 44 52 1
257.000000 -316.000000 65032.000000 40 50 1
258.000000 -316.000000 65034.000000 35 49 1
259.000000 -316.000000 65035.000000 30 45 1
260.000000 -316.000000 65035.000000 36 43 1
261.000000 -316.000000 65036.000000 42 43 2
262.000000 -316.000000 65037.000000 37 44 4
263.000000 -316.000000 65038.000000 32 45 2
264.000000 -316.000000 65038.000000 35 49 1
265.000000 -316.000000 65038.000000 38 43 6
266.000000 -316.000000 65038.000000 40 41 11
267.000000 -316.000000 65038.000000 42 40 6
268.000000 -316.000000 65038.000000 35 40 1
269.000000 -316.000000 65038.000000 28 43 1
270.000000 -316.000000 65038.000000 31 44 1
271.000000 -316.000000 65038.000000 34 42 2
272.000000 -316.000000 65038.000000 36 37 4
273.000000 -316.000000 65038.000000 38 23 2
274.000000 -316.000000 65038.000000 39 13 1
275.000000 -316.000000 65038.000000 41 9 1
276.000000 -316.000000 65038.000000 43 5 1
277.000000 -316.000000 65038.000000 46 10 1
278.000000 -316.000000 65038.000000 45 9 1
279.000000 -316.000000 65038.000000 45 8 10
280.000000 -316.000000 65038.000000 44 7 20
281.000000 -316.000000 65038.000000 44 5 10
282.000000 -316.000000 65038.000000 38 3 1
283.000000 -316.000000 65039.000000 33 3 1
284.000000 -316.000000 65039.000000 34 3 1
285.000000 -316.000000 65039.000000 35 17 1
286.000000 -316.000000 65039.000000 36 25 1
287.000000 -316.000000 65040.000000 38 48 1
288.000000 -316.000000 65040.000000 42 55 1
289.000000 -316.000000 65040.000000 46 66 1
290.000000 -316.000000 65040.000000 48 73 1
291.000000 -316.000000 65038.000000 51 73 1
292.000000 -316.000000 65038.000000 54 73 1
293.000000 -316.000000 65038.000000 58 78 1
294.000000 -316.000000 65037.000000 63 82 1
295.000000 -316.000000 65037.000000 68 86 12
296.000000 -316.000000 65036.000000 71 93 24
297.000000 -316.000000 65035.000000 74 90 12
298.000000 -316.000000 65033.000000 71 87 1
299.000000 -316.000000 65032.000000 69 89 7
300.000000 -316.000000 65032.000000 72 91 14
301.000000 -316.000000 65031.000000 76 91 7
302.000000 -316.000000 65026.000000 73 87 1
303.000000 -316.000000 65026.000000 70 87 1
304.000000 -316.000000 65025.000000 68 88 1
305.000000 -316.000000 65025.000000 67 87 10
306.000000 -316.000000 65025.000000 68 90 19
307.000000 -316.000000 65024.000000 69 88 10
308.000000 -316.000000 65023.000000 67 88 1
309.000000 -316.000000 65022.000000 65 88 1
310.000000 -316.000000 65020.000000 65 88 1
311.000000 -316.000000 65020.000000 65 87 1
312.000000 -316.000000 65019.000000 57 87 1
313.000000 -316.000000 65019.000000 50 85 3
314.000000 -316.000000 65018.000000 63 84 5
315.000000 -316.000000 65018.000000 77 76 19
254.000000 -317.000000 65029.000000 52 51 2
255.000000 -317.000000 65030.000000 45 46 1
256.000000 -317.000000 65031.000000 40 49 1
257.000000 -317.000000 65032.000000 35 51 1
258.000000 -317.000000 65034.000000 32 50 1
259.000000 -317.000000 65035.000000 29 47 1
260.000000 -317.000000 65036.000000 31 45 1
261.000000 -317.000000 65037.000000 34 41 1
262.000000 -317.000000 65038.000000 31 41 1
263.000000 -317.000000 65038.000000 29 41 1
264.000000 -317.000000 65038.000000 32 42 1
265.000000 -317.000000 65038.000000 35 44 11
266.000000 -317.000000 65038.000000 38 44 22
267.000000 -317.000000 65038.000000 40 44 11
268.000000 -317.000000 65038.000000 35 44 1
269.000000 -317.000000 65037.000000 31 44 1
270.000000 -317.000000 65038.000000 33 44 1
271.000000 -317.000000 65038.000000 36 41 1
272.000000 -317.000000 65038.000000 37 39 1
273.000000 -317.000000 65038.000000 39 26 1
274.000000 -317.000000 65038.000000 39 19 1
275.000000 -317.000000 65038.000000 40 12 1
276.000000 -317.000000 65038.000000 40 10 1
277.000000 -317.000000 65038.000000 41 9 1
278.000000 -317.000000 65038.000000 41 7 1
279.000000 -317.000000 65038.000000 41 5 1
280.000000 -317.000000 65039.000000 40 5 1
281.000000 -317.000000 65039.000000 39 6 1
282.000000 -317.000000 65039.000000 34 7 1
283.000000 -317.000000 65039.000000 29 8 1
284.000000 -317.000000 65039.000000 32 15 1
285.000000 -317.000000 65039.000000 36 22 1
286.000000 -317.000000 65040.000000 38 32 1
287.000000 -317.000000 65040.000000 40 49 1
288.000000 -317.000000 65040.000000 44 61 1
289.000000 -317.000000 65040.000000 47 64 1
290.000000 -317.000000 65040.000000 50 66 1
291.000000 -317.000000 65038.000000 53 68 1
292.000000 -317.000000 65038.000000 56 73 1
293.000000 -317.000000 65038.000000 59 75 1
294.000000 -317.000000 65037.000000 63 80 2
295.000000 -317.000000 65037.000000 68 85 23
296.000000 -317.000000 65036.000000 73 85 45
297.000000 -317.000000 65036.000000 77 86 23
298.000000 -317.000000 65034.000000 75 87 1
299.000000 -317.000000 65032.000000 72 89 13
300.000000 -317.000000 65032.000000 74 92 26
301.000000 -317.000000 65032.000000 75 92 13
302.000000 -317.000000 65026.000000 74 89 1
303.000000 -317.000000 65026.000000 73 87 1
304.000000 -317.000000 65025.000000 71 87 1
305.000000 -317.000000 65025.000000 69 87 1
306.000000 -317.000000 65025.000000 69 87 1
307.000000 -317.000000 65024.000000 69 88 1
308.000000 -317.000000 65023.000000 69 90 1
309.000000 -317.000000 65022.000000 68 92 1
310.000000 -317.000000 65020.000000 67 89 1
311.000000 -317.000000 65020.000000 66 88 1
312.000000 -317.000000 65019.000000 63 87 1
313.000000 -317.000000 65019.000000 61 86 1
314.000000 -317.000000 65019.000000 69 83 1
315.000000 -317.000000 65018.000000 78 78 9
316.000000 -317.000000 65018.000000 80 73 17
254.000000 -318.000000 65029.000000 42 47 1
255.000000 -318.000000 65031.000000 41 47 1
256.000000 -318.000000 65032.000000 35 47 1
257.000000 -318.000000 65033.000000 30 50 1
258.000000 -318.000000 65034.000000 29 52 1
259.000000 -318.000000 65035.000000 28 47 3
260.000000 -318.000000 65036.000000 27 49 5
261.000000 -318.000000 65037.000000 27 47 3
262.000000 -318.000000 65038.000000 26 46 1
263.000000 -318.000000 65038.000000 26 42 1
264.000000 -318.000000 65038.000000 29 41 1
265.000000 -318.000000 65038.000000 33 40 6
266.000000 -318.000000 65038.000000 36 40 11
267.000000 -318.000000 65038.000000 39 42 6
268.000000 -318.000000 65038.000000 36 45 1
269.000000 -318.000000 65038.000000 34 46 1
270.000000 -318.000000 65038.000000 36 47 1
271.000000 -318.000000 65038.000000 39 44 1
272.000000 -318.000000 65038.000000 39 41 1
273.000000 -318.000000 65038.000000 40 35 1
274.000000 -318.000000 65038.000000 39 30 1
275.000000 -318.000000 65038.000000 39 24 1
276.000000 -318.000000 65038.000000 38 18 1
277.000000 -318.000000 65038.000000 37 18 1
278.000000 -318.000000 65038.000000 37 19 1
279.000000 -318.000000 65038.000000 37 14 1
280.000000 -318.000000 65039.000000 35 10 1
281.000000 -318.000000 65039.000000 34 10 1
282.000000 -318.000000 65039.000000 30 10 1
283.000000 -318.000000 65039.000000 26 16 1
284.000000 -318.000000 65039.000000 31 22 1
285.000000 -318.000000 65039.000000 37 30 1
286.000000 -318.000000 65040.000000 40 39 1
287.000000 -318.000000 65040.000000 43 47 1
288.000000 -318.000000 65040.000000 46 68 1
289.000000 -318.000000 65040.000000 49 68 1
290.000000 -318.000000 65040.000000 52 68 1
291.000000 -318.000000 65039.000000 56 66 1
292.000000 -318.000000 65038.000000 58 74 1
293.000000 -318.000000 65038.000000 60 74 2
294.000000 -318.000000 65038.000000 64 78 4
295.000000 -318.000000 65037.000000 69 80 17
296.000000 -318.000000 65036.000000 75 83 30
297.000000 -318.000000 65036.000000 81 87 15
298.000000 -318.000000 65034.000000 78 92 1
299.000000 -318.000000 65032.000000 76 92 7
300.000000 -318.000000 65032.000000 75 93 13
301.000000 -318.000000 65031.000000 75 92 7
302.000000 -318.000000 65026.000000 75 92 1
303.000000 -318.000000 65026.000000 76 87 1
304.000000 -318.000000 65026.000000 74 88 1
305.000000 -318.000000 65026.000000 72 88 1
306.000000 -318.000000 65025.000000 71 88 1
307.000000 -318.000000 65024.000000 70 87 8
308.000000 -318.000000 65023.000000 71 92 15
309.000000 -318.000000 65022.000000 72 91 8
310.000000 -318.000000 65020.000000 70 91 1
311.000000 -318.000000 65020.000000 68 88 1
312.000000 -318.000000 65020.000000 70 88 1
313.000000 -318.000000 65019.000000 72 84 2
314.000000 -318.000000 65019.000000 75 82 4
315.000000 -318.000000 65018.000000 79 74 14
316.000000 -318.000000 65018.000000 82 73 23
255.000000 -319.000000 65032.000000 41 51 1
256.000000 -319.000000 65032.000000 36 50 1
257.000000 -319.000000 65033.000000 31 49 1
258.000000 -319.000000 65034.000000 29 48 1
259.000000 -319.000000 65035.000000 27 48 5
260.000000 -319.000000 65036.000000 28 49 10
261.000000 -319.000000 65037.000000 29 50 5
262.000000 -319.000000 65038.000000 28 45 1
263.000000 -319.000000 65038.000000 27 44 1
264.000000 -319.000000 65038.000000 30 43 1
265.000000 -319.000000 65038.000000 33 42 1
266.000000 -319.000000 65038.000000 36 40 1
267.000000 -319.000000 65038.000000 38 40 1
268.000000 -319.000000 65038.000000 36 43 1
269.000000 -319.000000 65038.000000 34 49 1
270.000000 -319.000000 65038.000000 35 49 1
271.000000 -319.000000 65038.000000 36 49 1
272.000000 -319.000000 65038.000000 38 42 2
273.000000 -319.000000 65038.000000 40 41 1
274.000000 -319.000000 65038.000000 38 40 1
275.000000 -319.000000 65038.000000 36 39 1
276.000000 -319.000000 65038.000000 34 35 1
277.000000 -319.000000 65038.000000 32 31 1
278.000000 -319.000000 65038.000000 33 32 1
279.000000 -319.000000 65039.000000 35 33 1
280.000000 -319.000000 65039.000000 35 28 1
281.000000 -319.000000 65039.000000 36 24 1
282.000000 -319.000000 65039.000000 33 28 1
283.000000 -319.000000 65039.000000 31 32 1
284.000000 -319.000000 65040.000000 34 38 1
285.000000 -319.000000 65040.000000 37 44 1
286.000000 -319.000000 65040.000000 38 44 1
287.000000 -319.000000 65040.000000 38 45 1
288.000000 -319.000000 65040.000000 41 60 2
289.000000 -319.000000 65040.000000 44 76 1
290.000000 -319.000000 65040.000000 47 70 1
291.000000 -319.000000 65039.000000 49 64 1
292.000000 -319.000000 65038.000000 53 68 1
293.000000 -319.000000 65038.000000 57 73 4
294.000000 -319.000000 65038.000000 62 73 7
295.000000 -319.000000 65037.000000 68 74 11
296.000000 -319.000000 65036.000000 78 80 15
297.000000 -319.000000 65036.000000 89 97 8
298.000000 -319.000000 65034.000000 79 89 2
299.000000 -319.000000 65032.000000 69 85 1
300.000000 -319.000000 65032.000000 64 89 1
301.000000 -319.000000 65030.000000 58 93 1
302.000000 -319.000000 65028.000000 69 90 1
303.000000 -319.000000 65026.000000 79 88 1
304.000000 -319.000000 65026.000000 77 88 1
305.000000 -319.000000 65026.000000 75 94 1
306.000000 -319.000000 65025.000000 72 88 1
307.000000 -319.000000 65024.000000 70 87 15
308.000000 -319.000000 65023.000000 73 87 30
309.000000 -319.000000 65021.000000 77 88 15
310.000000 -319.000000 65020.000000 74 88 1
311.000000 -319.000000 65020.000000 72 88 1
312.000000 -319.000000 65020.000000 71 86 1
313.000000 -319.000000 65020.000000 71 83 4
314.000000 -319.000000 65019.000000 74 80 8
315.000000 -319.000000 65019.000000 78 71 19
316.000000 -319.000000 65018.000000 81 70 30
254.000000 -320.000000 65032.000000 42 52 11
255.000000 -320.000000 65032.000000 41 51 6
256.000000 -320.000000 65032.000000 37 51 1
257.000000 -320.000000 65033.000000 33 47 1
258.000000 -320.000000 65035.000000 29 46 1
259.000000 -320.000000 65035.000000 26 45 3
260.000000 -320.000000 65036.000000 29 44 5
261.000000 -320.000000 65038.000000 32 44 3
262.000000 -320.000000 65038.000000 30 44 1
263.000000 -320.000000 65038.000000 29 44 1
264.000000 -320.000000 65038.000000 31 44 1
265.000000 -320.000000 65038.000000 34 41 2
266.000000 -320.000000 65038.000000 36 41 4
267.000000 -320.000000 65038.000000 38 41 2
268.000000 -320.000000 65038.000000 36 41 1
269.000000 -320.000000 65038.000000 34 48 1
270.000000 -320.000000 65038.000000 33 48 1
271.000000 -320.000000 65038.000000 33 46 3
272.000000 -320.000000 65038.000000 36 44 5
273.000000 -320.000000 65038.000000 40 41 3
274.000000 -320.000000 65038.000000 36 42 1
275.000000 -320.000000 65038.000000 33 42 1
276.000000 -320.000000 65038.000000 30 42 1
277.000000 -320.000000 65038.000000 27 41 1
278.000000 -320.000000 65038.000000 30 41 1
279.000000 -320.000000 65038.000000 34 40 1
280.000000 -320.000000 65039.000000 36 39 1
281.000000 -320.000000 65039.000000 38 40 1
282.000000 -320.000000 65039.000000 37 41 1
283.000000 -320.000000 65040.000000 37 45 1
284.000000 -320.000000 65040.000000 37 49 1
285.000000 -320.000000 65040.000000 38 42 1
286.000000 -320.000000 65040.000000 36 44 1
287.000000 -320.000000 65040.000000 34 40 1
288.000000 -320.000000 65040.000000 37 36 1
289.000000 -320.000000 65040.000000 40 38 1
290.000000 -320.000000 65040.000000 41 41 1
291.000000 -320.000000 65039.000000 43 47 5
292.000000 -320.000000 65038.000000 49 53 10
293.000000 -320.000000 65038.000000 55 66 11
294.000000 -320.000000 65038.000000 61 69 12
295.000000 -320.000000 65037.000000 67 73 24
296.000000 -320.000000 65037.000000 82 77 36
297.000000 -320.000000 65035.000000 97 100 19
298.000000 -320.000000 65034.000000 80 87 2
299.000000 -320.000000 65032.000000 63 74 1
300.000000 -320.000000 65030.000000 52 62 1
301.000000 -320.000000 65029.000000 42 70 4
302.000000 -320.000000 65028.000000 62 79 7
303.000000 -320.000000 65028.000000 83 85 7
304.000000 -320.000000 65027.000000 80 88 7
305.000000 -320.000000 65027.000000 78 88 6
306.000000 -320.000000 65026.000000 74 88 5
307.000000 -320.000000 65025.000000 71 86 13
308.000000 -320.000000 65024.000000 76 85 22
309.000000 -320.000000 65024.000000 82 87 12
