ply
    format ascii 1.0
    element vertex 10646
    property float x
    property float y
    property float z
    property uchar red
    property uchar green
    property uchar blue
    end_header
261.000000 -297.000000 65034.000000 40 46 20
262.000000 -297.000000 65035.000000 42 47 40
263.000000 -297.000000 65035.000000 44 41 20
264.000000 -297.000000 65038.000000 41 43 1
265.000000 -297.000000 65038.000000 38 45 4
266.000000 -297.000000 65038.000000 40 45 7
267.000000 -297.000000 65038.000000 43 45 4
268.000000 -297.000000 65038.000000 34 46 1
269.000000 -297.000000 65038.000000 25 47 1
270.000000 -297.000000 65038.000000 18 25 1
275.000000 -297.000000 65038.000000 20 14 1
276.000000 -297.000000 65038.000000 14 11 1
277.000000 -297.000000 65038.000000 9 17 1
278.000000 -297.000000 65036.000000 18 18 1
279.000000 -297.000000 65036.000000 28 19 1
280.000000 -297.000000 65035.000000 20 16 1
281.000000 -297.000000 65035.000000 12 13 1
282.000000 -297.000000 65035.000000 16 23 1
283.000000 -297.000000 65035.000000 20 27 1
284.000000 -297.000000 65035.000000 30 44 1
285.000000 -297.000000 65035.000000 40 58 1
286.000000 -297.000000 65035.000000 39 58 1
287.000000 -297.000000 65035.000000 38 55 1
288.000000 -297.000000 65035.000000 36 59 1
289.000000 -297.000000 65035.000000 34 59 1
290.000000 -297.000000 65035.000000 33 59 1
291.000000 -297.000000 65034.000000 33 60 1
292.000000 -297.000000 65033.000000 38 58 1
293.000000 -297.000000 65033.000000 43 56 1
294.000000 -297.000000 65032.000000 34 55 1
295.000000 -297.000000 65032.000000 24 55 1
296.000000 -297.000000 65032.000000 30 61 1
297.000000 -297.000000 65032.000000 36 69 1
298.000000 -297.000000 65032.000000 40 69 1
299.000000 -297.000000 65032.000000 44 76 1
300.000000 -297.000000 65031.000000 49 79 1
301.000000 -297.000000 65031.000000 54 80 2
302.000000 -297.000000 65030.000000 56 82 3
303.000000 -297.000000 65030.000000 59 88 2
245.000000 -298.000000 65017.000000 59 47 3
246.000000 -298.000000 65017.000000 52 46 1
247.000000 -298.000000 65018.000000 46 50 1
248.000000 -298.000000 65020.000000 37 51 1
249.000000 -298.000000 65019.000000 29 51 1
250.000000 -298.000000 65020.000000 32 51 1
251.000000 -298.000000 65023.000000 35 50 1
252.000000 -298.000000 65025.000000 37 50 1
253.000000 -298.000000 65026.000000 40 47 1
254.000000 -298.000000 65028.000000 42 45 1
255.000000 -298.000000 65029.000000 44 37 1
256.000000 -298.000000 65029.000000 43 29 1
257.000000 -298.000000 65029.000000 42 31 1
258.000000 -298.000000 65031.000000 38 33 1
259.000000 -298.000000 65032.000000 34 37 1
260.000000 -298.000000 65032.000000 37 41 1
261.000000 -298.000000 65035.000000 40 48 10
262.000000 -298.000000 65035.000000 43 49 20
263.000000 -298.000000 65035.000000 46 46 10
264.000000 -298.000000 65037.000000 40 43 1
265.000000 -298.000000 65038.000000 35 44 2
266.000000 -298.000000 65038.000000 37 45 4
267.000000 -298.000000 65038.000000 39 45 2
268.000000 -298.000000 65038.000000 29 46 1
269.000000 -298.000000 65039.000000 19 32 1
270.000000 -298.000000 65039.000000 11 10 1
275.000000 -298.000000 65038.000000 9 15 3
276.000000 -298.000000 65038.000000 8 10 1
277.000000 -298.000000 65038.000000 8 12 1
278.000000 -298.000000 65036.000000 23 26 1
279.000000 -298.000000 65036.000000 39 20 2
280.000000 -298.000000 65036.000000 25 22 4
281.000000 -298.000000 65035.000000 12 21 2
282.000000 -298.000000 65035.000000 12 21 1
283.000000 -298.000000 65035.000000 12 22 1
284.000000 -298.000000 65035.000000 18 39 2
285.000000 -298.000000 65035.000000 25 50 12
286.000000 -298.000000 65036.000000 30 62 22
287.000000 -298.000000 65035.000000 36 55 11
288.000000 -298.000000 65035.000000 36 59 1
289.000000 -298.000000 65035.000000 36 59 1
290.000000 -298.000000 65035.000000 34 59 1
291.000000 -298.000000 65035.000000 33 61 1
292.000000 -298.000000 65033.000000 40 55 1
293.000000 -298.000000 65033.000000 47 55 1
294.000000 -298.000000 65032.000000 30 56 1
295.000000 -298.000000 65032.000000 14 56 1
296.000000 -298.000000 65032.000000 23 58 1
297.000000 -298.000000 65032.000000 32 66 1
298.000000 -298.000000 65032.000000 36 67 1
299.000000 -298.000000 65032.000000 41 76 1
300.000000 -298.000000 65031.000000 47 79 1
301.000000 -298.000000 65031.000000 53 81 1
302.000000 -298.000000 65031.000000 53 83 2
303.000000 -298.000000 65031.000000 54 83 1
304.000000 -298.000000 65031.000000 53 84 1
245.000000 -299.000000 65017.000000 65 50 5
246.000000 -299.000000 65017.000000 56 50 1
247.000000 -299.000000 65019.000000 47 51 1
248.000000 -299.000000 65020.000000 39 52 1
249.000000 -299.000000 65019.000000 32 56 1
250.000000 -299.000000 65020.000000 33 53 1
251.000000 -299.000000 65021.000000 34 50 1
252.000000 -299.000000 65025.000000 36 48 1
253.000000 -299.000000 65026.000000 39 42 1
254.000000 -299.000000 65029.000000 42 34 1
255.000000 -299.000000 65029.000000 45 27 1
256.000000 -299.000000 65029.000000 45 27 1
257.000000 -299.000000 65030.000000 45 17 1
258.000000 -299.000000 65031.000000 41 23 1
259.000000 -299.000000 65032.000000 36 30 1
260.000000 -299.000000 65033.000000 37 40 1
261.000000 -299.000000 65035.000000 38 50 1
262.000000 -299.000000 65035.000000 39 50 1
263.000000 -299.000000 65036.000000 40 51 1
264.000000 -299.000000 65037.000000 36 45 1
265.000000 -299.000000 65038.000000 32 42 1
266.000000 -299.000000 65038.000000 31 47 1
267.000000 -299.000000 65039.000000 30 50 1
268.000000 -299.000000 65039.000000 22 40 1
269.000000 -299.000000 65039.000000 14 17 1
270.000000 -299.000000 65039.000000 8 9 1
271.000000 -299.000000 65038.000000 2 6 1
272.000000 -299.000000 65040.000000 4 9 1
273.000000 -299.000000 65040.000000 6 14 5
274.000000 -299.000000 65038.000000 6 15 9
275.000000 -299.000000 65038.000000 6 17 5
276.000000 -299.000000 65038.000000 5 7 1
277.000000 -299.000000 65038.000000 4 7 1
278.000000 -299.000000 65038.000000 13 14 1
279.000000 -299.000000 65038.000000 23 21 4
280.000000 -299.000000 65036.000000 15 20 8
281.000000 -299.000000 65035.000000 8 20 4
282.000000 -299.000000 65035.000000 7 18 1
283.000000 -299.000000 65035.000000 6 17 2
284.000000 -299.000000 65036.000000 12 18 4
285.000000 -299.000000 65036.000000 19 20 23
286.000000 -299.000000 65036.000000 23 37 43
287.000000 -299.000000 65036.000000 28 55 22
288.000000 -299.000000 65035.000000 31 56 1
289.000000 -299.000000 65035.000000 34 58 1
290.000000 -299.000000 65035.000000 35 61 1
291.000000 -299.000000 65035.000000 36 63 1
292.000000 -299.000000 65035.000000 40 60 1
293.000000 -299.000000 65034.000000 44 58 1
294.000000 -299.000000 65033.000000 35 57 1
295.000000 -299.000000 65033.000000 26 57 1
296.000000 -299.000000 65032.000000 30 59 1
297.000000 -299.000000 65032.000000 34 63 1
298.000000 -299.000000 65032.000000 38 69 1
299.000000 -299.000000 65032.000000 43 77 1
300.000000 -299.000000 65032.000000 47 80 1
301.000000 -299.000000 65031.000000 51 82 1
302.000000 -299.000000 65031.000000 51 83 1
303.000000 -299.000000 65031.000000 52 80 1
304.000000 -299.000000 65031.000000 51 85 1
305.000000 -299.000000 65031.000000 51 88 1
245.000000 -300.000000 65018.000000 71 50 14
246.000000 -300.000000 65018.000000 59 50 1
247.000000 -300.000000 65019.000000 48 50 6
248.000000 -300.000000 65020.000000 42 53 11
249.000000 -300.000000 65020.000000 36 54 6
250.000000 -300.000000 65020.000000 35 55 1
251.000000 -300.000000 65023.000000 34 50 1
252.000000 -300.000000 65025.000000 36 47 1
253.000000 -300.000000 65026.000000 38 38 1
254.000000 -300.000000 65028.000000 42 25 1
255.000000 -300.000000 65029.000000 47 25 1
256.000000 -300.000000 65029.000000 48 25 1
257.000000 -300.000000 65031.000000 49 22 1
258.000000 -300.000000 65031.000000 44 19 1
259.000000 -300.000000 65032.000000 39 27 1
260.000000 -300.000000 65035.000000 38 40 1
261.000000 -300.000000 65035.000000 37 45 1
262.000000 -300.000000 65037.000000 35 55 1
263.000000 -300.000000 65038.000000 34 52 1
264.000000 -300.000000 65038.000000 32 47 1
265.000000 -300.000000 65038.000000 30 42 8
266.000000 -300.000000 65038.000000 26 49 16
267.000000 -300.000000 65039.000000 22 43 8
268.000000 -300.000000 65039.000000 16 34 1
269.000000 -300.000000 65038.000000 10 15 1
270.000000 -300.000000 65038.000000 5 9 1
271.000000 -300.000000 65038.000000 1 5 1
272.000000 -300.000000 65038.000000 2 4 1
273.000000 -300.000000 65038.000000 3 6 3
274.000000 -300.000000 65038.000000 3 9 5
275.000000 -300.000000 65038.000000 3 6 3
276.000000 -300.000000 65038.000000 2 4 1
277.000000 -300.000000 65038.000000 1 6 1
278.000000 -300.000000 65038.000000 4 10 1
279.000000 -300.000000 65036.000000 7 11 2
280.000000 -300.000000 65035.000000 6 13 4
281.000000 -300.000000 65036.000000 5 11 2
282.000000 -300.000000 65035.000000 3 9 1
283.000000 -300.000000 65036.000000 1 9 3
284.000000 -300.000000 65036.000000 7 9 5
285.000000 -300.000000 65036.000000 13 9 16
286.000000 -300.000000 65035.000000 17 10 27
287.000000 -300.000000 65035.000000 21 42 14
288.000000 -300.000000 65035.000000 27 48 1
289.000000 -300.000000 65035.000000 33 53 1
290.000000 -300.000000 65035.000000 36 63 1
291.000000 -300.000000 65035.000000 39 63 1
292.000000 -300.000000 65034.000000 40 64 1
293.000000 -300.000000 65034.000000 41 57 1
294.000000 -300.000000 65033.000000 40 58 1
295.000000 -300.000000 65032.000000 39 56 1
296.000000 -300.000000 65032.000000 37 60 1
297.000000 -300.000000 65032.000000 36 63 1
298.000000 -300.000000 65032.000000 41 71 1
299.000000 -300.000000 65031.000000 46 78 1
300.000000 -300.000000 65031.000000 47 82 1
301.000000 -300.000000 65031.000000 49 82 1
302.000000 -300.000000 65030.000000 49 83 1
303.000000 -300.000000 65030.000000 50 85 1
304.000000 -300.000000 65031.000000 50 87 1
305.000000 -300.000000 65031.000000 50 87 1
245.000000 -301.000000 65018.000000 64 52 23
246.000000 -301.000000 65019.000000 55 49 1
247.000000 -301.000000 65020.000000 47 49 11
248.000000 -301.000000 65020.000000 41 50 22
249.000000 -301.000000 65020.000000 35 52 11
250.000000 -301.000000 65021.000000 34 51 1
251.000000 -301.000000 65023.000000 33 51 1
252.000000 -301.000000 65025.000000 36 46 1
253.000000 -301.000000 65026.000000 40 34 1
254.000000 -301.000000 65028.000000 45 25 1
255.000000 -301.000000 65029.000000 50 26 1
256.000000 -301.000000 65029.000000 52 26 2
257.000000 -301.000000 65031.000000 54 27 1
258.000000 -301.000000 65032.000000 49 19 1
259.000000 -301.000000 65032.000000 44 25 1
260.000000 -301.000000 65035.000000 41 32 1
261.000000 -301.000000 65036.000000 39 41 1
262.000000 -301.000000 65037.000000 36 51 1
263.000000 -301.000000 65038.000000 32 54 1
264.000000 -301.000000 65038.000000 31 48 1
265.000000 -301.000000 65039.000000 30 42 16
266.000000 -301.000000 65039.000000 22 39 32
267.000000 -301.000000 65040.000000 15 36 16
268.000000 -301.000000 65040.000000 13 25 1
269.000000 -301.000000 65039.000000 11 14 1
270.000000 -301.000000 65038.000000 8 9 1
271.000000 -301.000000 65038.000000 6 4 1
272.000000 -301.000000 65038.000000 7 4 1
273.000000 -301.000000 65038.000000 8 5 1
274.000000 -301.000000 65038.000000 7 10 1
275.000000 -301.000000 65038.000000 6 9 1
276.000000 -301.000000 65038.000000 4 6 1
277.000000 -301.000000 65038.000000 1 5 1
278.000000 -301.000000 65038.000000 5 9 1
279.000000 -301.000000 65038.000000 9 13 1
280.000000 -301.000000 65036.000000 9 13 1
281.000000 -301.000000 65036.000000 9 12 1
282.000000 -301.000000 65036.000000 8 12 1
283.000000 -301.000000 65037.000000 7 12 4
284.000000 -301.000000 65037.000000 11 12 7
285.000000 -301.000000 65036.000000 15 12 9
286.000000 -301.000000 65036.000000 13 16 11
287.000000 -301.000000 65035.000000 12 29 6
288.000000 -301.000000 65035.000000 18 38 1
289.000000 -301.000000 65035.000000 24 48 1
290.000000 -301.000000 65035.000000 28 55 2
291.000000 -301.000000 65035.000000 32 63 1
292.000000 -301.000000 65034.000000 34 59 1
293.000000 -301.000000 65034.000000 37 56 1
294.000000 -301.000000 65034.000000 36 56 1
295.000000 -301.000000 65033.000000 35 56 1
296.000000 -301.000000 65032.000000 34 58 1
297.000000 -301.000000 65032.000000 34 64 1
298.000000 -301.000000 65032.000000 40 72 1
299.000000 -301.000000 65031.000000 46 80 1
300.000000 -301.000000 65031.000000 47 83 1
301.000000 -301.000000 65031.000000 49 84 1
302.000000 -301.000000 65030.000000 48 86 1
303.000000 -301.000000 65030.000000 47 89 1
304.000000 -301.000000 65031.000000 47 88 1
305.000000 -301.000000 65031.000000 48 86 1
245.000000 -302.000000 65018.000000 58 48 13
246.000000 -302.000000 65019.000000 52 48 1
247.000000 -302.000000 65020.000000 46 48 6
248.000000 -302.000000 65020.000000 40 48 11
249.000000 -302.000000 65020.000000 35 49 6
250.000000 -302.000000 65021.000000 33 50 1
251.000000 -302.000000 65023.000000 32 48 1
252.000000 -302.000000 65025.000000 37 45 1
253.000000 -302.000000 65026.000000 42 32 1
254.000000 -302.000000 65028.000000 48 25 1
255.000000 -302.000000 65029.000000 54 26 1
256.000000 -302.000000 65030.000000 57 28 1
257.000000 -302.000000 65031.000000 60 30 1
258.000000 -302.000000 65032.000000 54 20 1
259.000000 -302.000000 65032.000000 49 23 1
260.000000 -302.000000 65035.000000 45 25 1
261.000000 -302.000000 65035.000000 42 40 1
262.000000 -302.000000 65037.000000 36 47 1
263.000000 -302.000000 65037.000000 31 48 1
264.000000 -302.000000 65038.000000 30 49 1
265.000000 -302.000000 65039.000000 30 46 9
266.000000 -302.000000 65040.000000 19 39 18
267.000000 -302.000000 65040.000000 9 24 9
268.000000 -302.000000 65040.000000 10 9 1
269.000000 -302.000000 65039.000000 12 9 1
270.000000 -302.000000 65039.000000 12 9 1
271.000000 -302.000000 65038.000000 12 9 1
272.000000 -302.000000 65038.000000 13 10 1
273.000000 -302.000000 65038.000000 14 11 1
274.000000 -302.000000 65038.000000 12 12 1
275.000000 -302.000000 65038.000000 10 10 1
276.000000 -302.000000 65038.000000 6 8 1
277.000000 -302.000000 65038.000000 2 5 1
278.000000 -302.000000 65038.000000 6 9 1
279.000000 -302.000000 65038.000000 11 15 2
280.000000 -302.000000 65037.000000 12 14 4
281.000000 -302.000000 65037.000000 13 12 3
282.000000 -302.000000 65036.000000 13 10 3
283.000000 -302.000000 65037.000000 13 14 4
284.000000 -302.000000 65037.000000 15 18 5
285.000000 -302.000000 65037.000000 17 20 5
286.000000 -302.000000 65036.000000 10 23 6
287.000000 -302.000000 65035.000000 3 23 3
288.000000 -302.000000 65035.000000 9 7 1
289.000000 -302.000000 65035.000000 15 36 1
290.000000 -302.000000 65035.000000 20 42 1
291.000000 -302.000000 65035.000000 25 48 1
292.000000 -302.000000 65034.000000 29 54 1
293.000000 -302.000000 65034.000000 34 55 1
294.000000 -302.000000 65034.000000 32 57 1
295.000000 -302.000000 65033.000000 31 57 1
296.000000 -302.000000 65032.000000 31 57 1
297.000000 -302.000000 65032.000000 32 65 1
298.000000 -302.000000 65032.000000 39 73 1
299.000000 -302.000000 65032.000000 46 81 1
300.000000 -302.000000 65031.000000 47 85 1
301.000000 -302.000000 65031.000000 49 85 1
302.000000 -302.000000 65031.000000 46 88 1
303.000000 -302.000000 65030.000000 44 89 1
304.000000 -302.000000 65031.000000 45 90 1
305.000000 -302.000000 65031.000000 47 86 1
306.000000 -302.000000 65031.000000 52 83 1
246.000000 -303.000000 65020.000000 51 48 1
247.000000 -303.000000 65020.000000 45 49 1
248.000000 -303.000000 65020.000000 41 48 1
249.000000 -303.000000 65021.000000 36 46 1
250.000000 -303.000000 65023.000000 32 46 1
251.000000 -303.000000 65024.000000 29 46 1
252.000000 -303.000000 65025.000000 35 44 1
253.000000 -303.000000 65026.000000 41 31 1
254.000000 -303.000000 65029.000000 47 25 1
255.000000 -303.000000 65029.000000 53 22 1
256.000000 -303.000000 65030.000000 59 30 1
257.000000 -303.000000 65031.000000 65 33 1
258.000000 -303.000000 65032.000000 57 24 1
259.000000 -303.000000 65033.000000 49 21 1
260.000000 -303.000000 65035.000000 45 25 1
261.000000 -303.000000 65035.000000 40 40 1
262.000000 -303.000000 65037.000000 33 46 2
263.000000 -303.000000 65038.000000 25 50 1
264.000000 -303.000000 65038.000000 25 50 1
265.000000 -303.000000 65039.000000 26 50 3
266.000000 -303.000000 65040.000000 16 36 5
267.000000 -303.000000 65040.000000 6 12 3
268.000000 -303.000000 65040.000000 12 9 1
269.000000 -303.000000 65040.000000 19 7 1
270.000000 -303.000000 65039.000000 18 16 1
271.000000 -303.000000 65038.000000 18 26 1
272.000000 -303.000000 65038.000000 25 28 1
273.000000 -303.000000 65038.000000 32 30 1
274.000000 -303.000000 65038.000000 24 26 2
275.000000 -303.000000 65038.000000 17 23 1
276.000000 -303.000000 65038.000000 11 8 1
277.000000 -303.000000 65038.000000 5 5 1
278.000000 -303.000000 65038.000000 12 10 1
279.000000 -303.000000 65037.000000 20 17 4
280.000000 -303.000000 65037.000000 27 18 7
281.000000 -303.000000 65037.000000 34 19 6
282.000000 -303.000000 65037.000000 29 20 5
283.000000 -303.000000 65038.000000 25 22 4
284.000000 -303.000000 65037.000000 29 33 3
285.000000 -303.000000 65037.000000 33 45 2
286.000000 -303.000000 65037.000000 25 31 1
287.000000 -303.000000 65036.000000 16 17 1
288.000000 -303.000000 65035.000000 17 20 1
289.000000 -303.000000 65035.000000 18 24 1
290.000000 -303.000000 65035.000000 18 29 1
291.000000 -303.000000 65035.000000 19 34 1
292.000000 -303.000000 65034.000000 21 42 1
293.000000 -303.000000 65034.000000 24 51 1
294.000000 -303.000000 65034.000000 25 55 1
295.000000 -303.000000 65033.000000 27 60 1
296.000000 -303.000000 65032.000000 27 50 1
297.000000 -303.000000 65032.000000 28 44 1
298.000000 -303.000000 65032.000000 36 64 1
299.000000 -303.000000 65032.000000 44 82 1
300.000000 -303.000000 65032.000000 46 84 1
301.000000 -303.000000 65031.000000 49 86 1
302.000000 -303.000000 65031.000000 50 87 2
303.000000 -303.000000 65031.000000 51 91 1
304.000000 -303.000000 65031.000000 49 88 1
305.000000 -303.000000 65030.000000 48 87 1
306.000000 -303.000000 65030.000000 53 84 1
245.000000 -304.000000 65020.000000 58 51 3
246.000000 -304.000000 65020.000000 51 51 1
247.000000 -304.000000 65020.000000 45 50 1
248.000000 -304.000000 65020.000000 41 49 1
249.000000 -304.000000 65021.000000 38 48 1
250.000000 -304.000000 65023.000000 32 48 1
251.000000 -304.000000 65024.000000 26 46 1
252.000000 -304.000000 65025.000000 33 43 1
253.000000 -304.000000 65026.000000 41 32 1
254.000000 -304.000000 65028.000000 47 26 1
255.000000 -304.000000 65029.000000 53 32 1
256.000000 -304.000000 65030.000000 61 39 1
257.000000 -304.000000 65031.000000 70 37 1
258.000000 -304.000000 65032.000000 60 28 1
259.000000 -304.000000 65033.000000 50 27 1
260.000000 -304.000000 65035.000000 44 26 1
261.000000 -304.000000 65036.000000 39 41 1
262.000000 -304.000000 65037.000000 29 46 1
263.000000 -304.000000 65038.000000 20 52 1
264.000000 -304.000000 65038.000000 21 53 1
265.000000 -304.000000 65038.000000 22 50 2
266.000000 -304.000000 65038.000000 12 34 3
267.000000 -304.000000 65040.000000 3 16 2
268.000000 -304.000000 65040.000000 14 17 1
269.000000 -304.000000 65040.000000 26 18 1
270.000000 -304.000000 65039.000000 25 44 1
271.000000 -304.000000 65038.000000 24 22 1
272.000000 -304.000000 65038.000000 37 34 1
273.000000 -304.000000 65038.000000 50 40 12
274.000000 -304.000000 65038.000000 37 47 23
275.000000 -304.000000 65038.000000 25 36 12
276.000000 -304.000000 65038.000000 17 9 1
277.000000 -304.000000 65038.000000 9 10 1
278.000000 -304.000000 65038.000000 19 12 1
279.000000 -304.000000 65037.000000 29 18 5
280.000000 -304.000000 65037.000000 42 59 10
281.000000 -304.000000 65038.000000 56 57 6
282.000000 -304.000000 65038.000000 46 56 3
283.000000 -304.000000 65038.000000 37 59 4
284.000000 -304.000000 65038.000000 43 62 5
285.000000 -304.000000 65038.000000 50 47 3
286.000000 -304.000000 65038.000000 40 53 1
287.000000 -304.000000 65037.000000 30 44 1
288.000000 -304.000000 65035.000000 25 35 1
289.000000 -304.000000 65035.000000 21 30 1
290.000000 -304.000000 65035.000000 17 17 1
291.000000 -304.000000 65035.000000 13 25 1
292.000000 -304.000000 65034.000000 14 28 1
293.000000 -304.000000 65034.000000 15 36 1
294.000000 -304.000000 65034.000000 19 45 1
295.000000 -304.000000 65034.000000 23 44 1
296.000000 -304.000000 65034.000000 23 44 1
297.000000 -304.000000 65032.000000 24 40 1
298.000000 -304.000000 65032.000000 33 55 1
299.000000 -304.000000 65032.000000 42 80 1
300.000000 -304.000000 65032.000000 46 80 1
301.000000 -304.000000 65031.000000 50 81 1
302.000000 -304.000000 65031.000000 54 83 1
303.000000 -304.000000 65030.000000 58 84 1
304.000000 -304.000000 65031.000000 53 86 1
305.000000 -304.000000 65030.000000 49 85 1
306.000000 -304.000000 65030.000000 54 85 1
308.000000 -304.000000 65024.000000 69 80 3
309.000000 -304.000000 65024.000000 78 77 26
245.000000 -305.000000 65019.000000 59 50 1
246.000000 -305.000000 65020.000000 52 50 1
247.000000 -305.000000 65020.000000 45 51 1
248.000000 -305.000000 65020.000000 42 47 1
249.000000 -305.000000 65021.000000 38 44 1
250.000000 -305.000000 65023.000000 35 48 1
251.000000 -305.000000 65025.000000 32 47 1
252.000000 -305.000000 65025.000000 37 42 1
253.000000 -305.000000 65026.000000 43 33 1
254.000000 -305.000000 65028.000000 48 35 1
255.000000 -305.000000 65029.000000 53 37 1
256.000000 -305.000000 65030.000000 58 40 2
257.000000 -305.000000 65031.000000 62 42 1
258.000000 -305.000000 65032.000000 56 31 1
259.000000 -305.000000 65033.000000 50 33 1
260.000000 -305.000000 65035.000000 44 29 1
261.000000 -305.000000 65035.000000 39 43 1
262.000000 -305.000000 65037.000000 32 46 1
263.000000 -305.000000 65038.000000 25 54 1
264.000000 -305.000000 65038.000000 26 52 1
265.000000 -305.000000 65038.000000 27 50 1
266.000000 -305.000000 65040.000000 21 42 1
267.000000 -305.000000 65040.000000 15 20 1
268.000000 -305.000000 65040.000000 20 25 1
269.000000 -305.000000 65040.000000 25 30 1
270.000000 -305.000000 65038.000000 19 24 1
271.000000 -305.000000 65038.000000 12 18 1
272.000000 -305.000000 65038.000000 23 21 1
273.000000 -305.000000 65038.000000 34 47 22
274.000000 -305.000000 65038.000000 31 48 44
275.000000 -305.000000 65038.000000 28 49 23
276.000000 -305.000000 65038.000000 16 12 2
277.000000 -305.000000 65038.000000 5 9 1
278.000000 -305.000000 65038.000000 14 15 1
279.000000 -305.000000 65037.000000 24 19 7
280.000000 -305.000000 65038.000000 34 51 14
281.000000 -305.000000 65038.000000 45 63 7
282.000000 -305.000000 65038.000000 36 60 1
283.000000 -305.000000 65038.000000 27 58 4
284.000000 -305.000000 65038.000000 31 53 7
285.000000 -305.000000 65038.000000 36 49 4
286.000000 -305.000000 65038.000000 33 48 1
287.000000 -305.000000 65037.000000 30 47 1
288.000000 -305.000000 65035.000000 27 41 1
289.000000 -305.000000 65035.000000 24 36 1
290.000000 -305.000000 65035.000000 20 29 1
291.000000 -305.000000 65035.000000 17 23 1
292.000000 -305.000000 65034.000000 13 22 1
293.000000 -305.000000 65034.000000 9 21 1
294.000000 -305.000000 65035.000000 13 27 1
295.000000 -305.000000 65034.000000 18 34 1
296.000000 -305.000000 65035.000000 24 35 1
297.000000 -305.000000 65034.000000 31 36 1
298.000000 -305.000000 65032.000000 37 64 1
299.000000 -305.000000 65032.000000 44 78 1
300.000000 -305.000000 65031.000000 48 81 1
301.000000 -305.000000 65031.000000 52 82 1
302.000000 -305.000000 65031.000000 53 81 1
303.000000 -305.000000 65030.000000 54 79 1
304.000000 -305.000000 65030.000000 46 84 1
305.000000 -305.000000 65030.000000 39 85 1
306.000000 -305.000000 65030.000000 49 83 1
308.000000 -305.000000 65024.000000 67 78 5
309.000000 -305.000000 65024.000000 77 65 40
245.000000 -306.000000 65019.000000 60 49 15
246.000000 -306.000000 65020.000000 53 50 1
247.000000 -306.000000 65020.000000 46 51 1
248.000000 -306.000000 65020.000000 42 45 1
249.000000 -306.000000 65022.000000 39 47 1
250.000000 -306.000000 65023.000000 38 49 1
251.000000 -306.000000 65025.000000 38 47 1
252.000000 -306.000000 65025.000000 42 42 1
253.000000 -306.000000 65026.000000 46 34 1
254.000000 -306.000000 65027.000000 50 32 1
255.000000 -306.000000 65029.000000 54 33 10
256.000000 -306.000000 65030.000000 54 42 19
257.000000 -306.000000 65031.000000 55 38 10
258.000000 -306.000000 65032.000000 52 35 1
259.000000 -306.000000 65033.000000 50 33 1
260.000000 -306.000000 65035.000000 44 32 1
261.000000 -306.000000 65035.000000 39 40 1
262.000000 -306.000000 65037.000000 34 47 1
263.000000 -306.000000 65038.000000 30 49 1
264.000000 -306.000000 65038.000000 31 51 1
265.000000 -306.000000 65038.000000 32 50 1
266.000000 -306.000000 65040.000000 29 50 1
267.000000 -306.000000 65039.000000 27 43 1
268.000000 -306.000000 65040.000000 26 37 1
269.000000 -306.000000 65040.000000 25 30 4
270.000000 -306.000000 65039.000000 13 19 8
271.000000 -306.000000 65038.000000 1 15 7
272.000000 -306.000000 65039.000000 10 9 7
273.000000 -306.000000 65038.000000 19 26 15
274.000000 -306.000000 65039.000000 25 43 23
275.000000 -306.000000 65038.000000 32 51 12
276.000000 -306.000000 65038.000000 16 16 1
277.000000 -306.000000 65038.000000 1 9 1
278.000000 -306.000000 65038.000000 10 18 1
279.000000 -306.000000 65038.000000 19 21 4
280.000000 -306.000000 65038.000000 26 44 7
281.000000 -306.000000 65038.000000 34 29 4
282.000000 -306.000000 65038.000000 25 14 1
283.000000 -306.000000 65038.000000 17 25 3
284.000000 -306.000000 65037.000000 20 36 5
285.000000 -306.000000 65037.000000 23 40 3
286.000000 -306.000000 65037.000000 26 45 1
287.000000 -306.000000 65036.000000 30 49 1
288.000000 -306.000000 65035.000000 29 53 2
289.000000 -306.000000 65035.000000 28 45 1
290.000000 -306.000000 65035.000000 24 38 1
291.000000 -306.000000 65035.000000 21 31 1
292.000000 -306.000000 65034.000000 12 24 1
293.000000 -306.000000 65034.000000 3 24 1
294.000000 -306.000000 65035.000000 8 14 1
295.000000 -306.000000 65035.000000 14 32 3
296.000000 -306.000000 65035.000000 26 28 5
297.000000 -306.000000 65035.000000 38 47 3
298.000000 -306.000000 65033.000000 42 73 1
299.000000 -306.000000 65032.000000 46 79 1
300.000000 -306.000000 65032.000000 50 83 1
301.000000 -306.000000 65031.000000 54 82 1
302.000000 -306.000000 65031.000000 52 80 1
303.000000 -306.000000 65030.000000 50 81 1
304.000000 -306.000000 65030.000000 40 83 1
305.000000 -306.000000 65030.000000 30 84 1
306.000000 -306.000000 65030.000000 43 82 1
245.000000 -307.000000 65019.000000 58 53 30
246.000000 -307.000000 65020.000000 51 51 1
247.000000 -307.000000 65020.000000 44 52 1
248.000000 -307.000000 65020.000000 41 52 1
249.000000 -307.000000 65022.000000 39 52 1
250.000000 -307.000000 65023.000000 38 50 1
251.000000 -307.000000 65024.000000 37 48 1
252.000000 -307.000000 65025.000000 41 43 1
253.000000 -307.000000 65026.000000 46 35 1
254.000000 -307.000000 65027.000000 48 32 1
255.000000 -307.000000 65029.000000 50 30 18
256.000000 -307.000000 65031.000000 49 30 36
257.000000 -307.000000 65032.000000 48 30 18
258.000000 -307.000000 65032.000000 51 29 1
259.000000 -307.000000 65033.000000 54 29 1
260.000000 -307.000000 65035.000000 47 29 1
261.000000 -307.000000 65036.000000 41 38 1
262.000000 -307.000000 65037.000000 36 44 1
263.000000 -307.000000 65038.000000 31 46 1
264.000000 -307.000000 65038.000000 33 47 1
265.000000 -307.000000 65038.000000 35 49 1
266.000000 -307.000000 65039.000000 33 49 1
267.000000 -307.000000 65039.000000 30 46 1
268.000000 -307.000000 65040.000000 28 42 1
269.000000 -307.000000 65040.000000 26 31 8
270.000000 -307.000000 65040.000000 14 15 15
271.000000 -307.000000 65039.000000 3 12 14
272.000000 -307.000000 65039.000000 8 11 14
273.000000 -307.000000 65039.000000 14 10 8
274.000000 -307.000000 65039.000000 25 31 2
275.000000 -307.000000 65038.000000 36 53 1
276.000000 -307.000000 65038.000000 20 12 1
277.000000 -307.000000 65038.000000 4 10 1
278.000000 -307.000000 65038.000000 12 19 1
279.000000 -307.000000 65038.000000 20 23 1
280.000000 -307.000000 65038.000000 27 24 1
281.000000 -307.000000 65038.000000 34 25 1
282.000000 -307.000000 65038.000000 21 12 2
283.000000 -307.000000 65038.000000 9 9 3
284.000000 -307.000000 65038.000000 12 21 4
285.000000 -307.000000 65038.000000 16 33 2
286.000000 -307.000000 65038.000000 24 46 1
287.000000 -307.000000 65037.000000 33 56 2
288.000000 -307.000000 65036.000000 31 58 3
289.000000 -307.000000 65035.000000 30 60 2
290.000000 -307.000000 65035.000000 29 54 1
291.000000 -307.000000 65035.000000 28 49 1
292.000000 -307.000000 65034.000000 22 38 1
293.000000 -307.000000 65034.000000 16 28 1
294.000000 -307.000000 65035.000000 19 29 1
295.000000 -307.000000 65035.000000 22 31 5
296.000000 -307.000000 65035.000000 33 37 10
297.000000 -307.000000 65035.000000 44 58 5
298.000000 -307.000000 65034.000000 44 72 1
299.000000 -307.000000 65032.000000 45 81 1
300.000000 -307.000000 65032.000000 51 82 1
301.000000 -307.000000 65031.000000 57 83 1
302.000000 -307.000000 65031.000000 54 85 2
303.000000 -307.000000 65030.000000 51 87 1
304.000000 -307.000000 65030.000000 45 86 1
305.000000 -307.000000 65028.000000 38 86 1
306.000000 -307.000000 65026.000000 47 83 1
307.000000 -307.000000 65026.000000 57 81 1
245.000000 -308.000000 65019.000000 56 51 15
246.000000 -308.000000 65020.000000 49 51 1
247.000000 -308.000000 65020.000000 42 50 1
248.000000 -308.000000 65020.000000 40 50 1
249.000000 -308.000000 65022.000000 39 51 1
250.000000 -308.000000 65023.000000 37 53 1
251.000000 -308.000000 65024.000000 36 46 1
252.000000 -308.000000 65025.000000 41 45 1
253.000000 -308.000000 65026.000000 46 35 1
254.000000 -308.000000 65027.000000 46 25 1
255.000000 -308.000000 65029.000000 47 27 9
256.000000 -308.000000 65030.000000 44 30 18
257.000000 -308.000000 65031.000000 42 25 9
258.000000 -308.000000 65032.000000 50 21 1
259.000000 -308.000000 65032.000000 58 23 1
260.000000 -308.000000 65035.000000 50 26 1
261.000000 -308.000000 65036.000000 43 32 1
262.000000 -308.000000 65037.000000 38 41 1
263.000000 -308.000000 65038.000000 33 42 1
264.000000 -308.000000 65038.000000 36 43 2
265.000000 -308.000000 65038.000000 39 50 1
266.000000 -308.000000 65039.000000 36 48 1
267.000000 -308.000000 65039.000000 34 47 1
268.000000 -308.000000 65040.000000 30 47 1
269.000000 -308.000000 65040.000000 27 37 4
270.000000 -308.000000 65040.000000 16 12 8
271.000000 -308.000000 65039.000000 6 7 7
272.000000 -308.000000 65039.000000 7 3 7
273.000000 -308.000000 65039.000000 9 6 9
274.000000 -308.000000 65040.000000 25 20 10
275.000000 -308.000000 65039.000000 41 14 5
276.000000 -308.000000 65038.000000 24 9 1
277.000000 -308.000000 65038.000000 7 8 1
278.000000 -308.000000 65038.000000 14 20 1
279.000000 -308.000000 65038.000000 21 28 1
280.000000 -308.000000 65038.000000 27 51 2
281.000000 -308.000000 65038.000000 34 31 2
282.000000 -308.000000 65038.000000 17 10 3
283.000000 -308.000000 65038.000000 1 8 2
284.000000 -308.000000 65038.000000 5 1 2
285.000000 -308.000000 65038.000000 9 17 1
286.000000 -308.000000 65038.000000 22 47 1
287.000000 -308.000000 65038.000000 36 56 1
288.000000 -308.000000 65036.000000 34 62 2
289.000000 -308.000000 65035.000000 33 60 1
290.000000 -308.000000 65035.000000 34 59 1
291.000000 -308.000000 65035.000000 36 54 6
292.000000 -308.000000 65034.000000 32 52 11
293.000000 -308.000000 65034.000000 29 45 6
294.000000 -308.000000 65035.000000 30 38 1
295.000000 -308.000000 65035.000000 31 42 3
296.000000 -308.000000 65035.000000 40 47 5
297.000000 -308.000000 65035.000000 50 62 3
298.000000 -308.000000 65034.000000 47 71 1
299.000000 -308.000000 65033.000000 45 79 1
300.000000 -308.000000 65032.000000 52 80 1
301.000000 -308.000000 65031.000000 60 82 1
302.000000 -308.000000 65031.000000 56 85 1
303.000000 -308.000000 65030.000000 53 86 1
304.000000 -308.000000 65030.000000 50 90 1
305.000000 -308.000000 65029.000000 47 86 1
306.000000 -308.000000 65026.000000 52 88 1
307.000000 -308.000000 65026.000000 57 81 1
245.000000 -309.000000 65019.000000 58 49 1
246.000000 -309.000000 65019.000000 50 50 1
247.000000 -309.000000 65020.000000 43 46 1
248.000000 -309.000000 65020.000000 40 48 1
249.000000 -309.000000 65022.000000 37 51 1
250.000000 -309.000000 65023.000000 37 51 1
251.000000 -309.000000 65024.000000 38 44 1
252.000000 -309.000000 65025.000000 41 44 1
253.000000 -309.000000 65026.000000 45 35 1
254.000000 -309.000000 65027.000000 47 23 1
255.000000 -309.000000 65029.000000 49 19 1
256.000000 -309.000000 65031.000000 48 18 1
257.000000 -309.000000 65031.000000 48 17 1
258.000000 -309.000000 65032.000000 52 18 1
259.000000 -309.000000 65032.000000 56 11 1
260.000000 -309.000000 65035.000000 49 18 1
261.000000 -309.000000 65036.000000 43 27 1
262.000000 -309.000000 65037.000000 39 41 1
263.000000 -309.000000 65038.000000 36 43 2
264.000000 -309.000000 65038.000000 39 47 4
265.000000 -309.000000 65038.000000 41 52 2
266.000000 -309.000000 65038.000000 37 48 1
267.000000 -309.000000 65038.000000 33 48 1
268.000000 -309.000000 65039.000000 30 46 2
269.000000 -309.000000 65040.000000 28 44 1
270.000000 -309.000000 65039.000000 19 19 1
271.000000 -309.000000 65039.000000 10 3 1
272.000000 -309.000000 65039.000000 8 2 1
273.000000 -309.000000 65039.000000 6 2 10
274.000000 -309.000000 65039.000000 17 20 19
275.000000 -309.000000 65039.000000 29 21 10
276.000000 -309.000000 65038.000000 18 12 1
277.000000 -309.000000 65038.000000 8 6 1
278.000000 -309.000000 65038.000000 15 20 1
279.000000 -309.000000 65038.000000 23 34 2
280.000000 -309.000000 65038.000000 32 36 3
281.000000 -309.000000 65038.000000 42 38 3
282.000000 -309.000000 65038.000000 25 16 4
283.000000 -309.000000 65038.000000 9 7 2
284.000000 -309.000000 65038.000000 10 1 1
285.000000 -309.000000 65038.000000 11 1 1
286.000000 -309.000000 65038.000000 23 43 1
287.000000 -309.000000 65037.000000 35 56 1
288.000000 -309.000000 65037.000000 34 58 1
289.000000 -309.000000 65036.000000 33 60 1
290.000000 -309.000000 65036.000000 36 59 1
291.000000 -309.000000 65035.000000 39 56 11
292.000000 -309.000000 65035.000000 34 54 21
293.000000 -309.000000 65035.000000 30 46 11
294.000000 -309.000000 65034.000000 31 47 1
295.000000 -309.000000 65035.000000 32 49 1
296.000000 -309.000000 65035.000000 38 53 1
297.000000 -309.000000 65035.000000 44 67 1
298.000000 -309.000000 65034.000000 43 72 1
299.000000 -309.000000 65033.000000 42 77 1
300.000000 -309.000000 65033.000000 48 81 1
301.000000 -309.000000 65032.000000 54 82 1
302.000000 -309.000000 65032.000000 52 84 1
303.000000 -309.000000 65032.000000 51 85 1
304.000000 -309.000000 65030.000000 50 85 1
305.000000 -309.000000 65030.000000 50 86 1
306.000000 -309.000000 65028.000000 54 87 1
307.000000 -309.000000 65028.000000 58 82 1
246.000000 -310.000000 65020.000000 52 49 1
247.000000 -310.000000 65020.000000 44 46 1
248.000000 -310.000000 65020.000000 40 44 1
249.000000 -310.000000 65022.000000 36 51 1
250.000000 -310.000000 65023.000000 38 49 1
251.000000 -310.000000 65026.000000 40 46 1
252.000000 -310.000000 65026.000000 42 43 1
253.000000 -310.000000 65026.000000 45 34 1
254.000000 -310.000000 65028.000000 48 22 1
255.000000 -310.000000 65029.000000 51 22 1
256.000000 -310.000000 65030.000000 52 22 1
257.000000 -310.000000 65031.000000 54 19 1
258.000000 -310.000000 65032.000000 54 16 1
259.000000 -310.000000 65032.000000 54 13 1
260.000000 -310.000000 65035.000000 48 11 1
261.000000 -310.000000 65035.000000 43 31 1
262.000000 -310.000000 65037.000000 41 41 1
263.000000 -310.000000 65038.000000 40 47 1
264.000000 -310.000000 65038.000000 42 51 2
265.000000 -310.000000 65038.000000 44 51 1
266.000000 -310.000000 65038.000000 38 49 1
267.000000 -310.000000 65038.000000 32 47 1
268.000000 -310.000000 65039.000000 31 46 1
269.000000 -310.000000 65040.000000 30 45 1
270.000000 -310.000000 65039.000000 22 27 1
271.000000 -310.000000 65039.000000 15 14 1
272.000000 -310.000000 65039.000000 9 1 1
273.000000 -310.000000 65039.000000 4 10 5
274.000000 -310.000000 65039.000000 10 20 10
275.000000 -310.000000 65039.000000 17 17 5
276.000000 -310.000000 65038.000000 13 15 1
277.000000 -310.000000 65038.000000 10 4 3
278.000000 -310.000000 65038.000000 17 21 5
279.000000 -310.000000 65038.000000 25 39 3
280.000000 -310.000000 65038.000000 38 42 2
281.000000 -310.000000 65038.000000 51 41 2
282.000000 -310.000000 65038.000000 34 23 2
283.000000 -310.000000 65038.000000 17 12 2
284.000000 -310.000000 65038.000000 15 1 2
285.000000 -310.000000 65038.000000 14 6 1
286.000000 -310.000000 65037.000000 24 39 1
287.000000 -310.000000 65038.000000 34 54 1
288.000000 -310.000000 65037.000000 34 57 1
289.000000 -310.000000 65037.000000 34 58 1
290.000000 -310.000000 65037.000000 38 59 1
291.000000 -310.000000 65037.000000 42 57 6
292.000000 -310.000000 65037.000000 37 56 11
293.000000 -310.000000 65035.000000 32 54 6
294.000000 -310.000000 65035.000000 32 53 1
295.000000 -310.000000 65035.000000 33 54 1
296.000000 -310.000000 65035.000000 36 60 1
297.000000 -310.000000 65035.000000 39 64 1
298.000000 -310.000000 65034.000000 39 73 1
299.000000 -310.000000 65033.000000 40 78 1
300.000000 -310.000000 65032.000000 44 82 1
301.000000 -310.000000 65032.000000 48 82 1
302.000000 -310.000000 65031.000000 49 83 1
303.000000 -310.000000 65030.000000 50 83 1
304.000000 -310.000000 65030.000000 51 83 1
305.000000 -310.000000 65030.000000 53 87 1
306.000000 -310.000000 65030.000000 56 87 2
307.000000 -310.000000 65030.000000 59 82 1
246.000000 -311.000000 65020.000000 52 49 1
247.000000 -311.000000 65020.000000 44 47 1
248.000000 -311.000000 65020.000000 38 49 1
249.000000 -311.000000 65023.000000 32 51 1
250.000000 -311.000000 65023.000000 35 50 1
251.000000 -311.000000 65023.000000 38 50 1
252.000000 -311.000000 65026.000000 42 42 1
253.000000 -311.000000 65026.000000 45 34 1
254.000000 -311.000000 65027.000000 49 26 1
255.000000 -311.000000 65029.000000 52 21 1
256.000000 -311.000000 65030.000000 55 28 2
257.000000 -311.000000 65031.000000 59 40 1
258.000000 -311.000000 65032.000000 56 20 1
259.000000 -311.000000 65032.000000 53 16 1
260.000000 -311.000000 65035.000000 47 16 1
261.000000 -311.000000 65035.000000 42 35 1
262.000000 -311.000000 65037.000000 40 42 1
263.000000 -311.000000 65038.000000 39 51 1
264.000000 -311.000000 65038.000000 39 51 1
265.000000 -311.000000 65038.000000 40 51 1
266.000000 -311.000000 65039.000000 37 49 1
267.000000 -311.000000 65039.000000 35 44 1
268.000000 -311.000000 65039.000000 33 46 1
269.000000 -311.000000 65040.000000 32 46 1
270.000000 -311.000000 65040.000000 30 36 1
271.000000 -311.000000 65039.000000 29 26 1
272.000000 -311.000000 65039.000000 25 33 1
273.000000 -311.000000 65038.000000 21 40 1
274.000000 -311.000000 65039.000000 20 35 1
275.000000 -311.000000 65038.000000 20 30 1
276.000000 -311.000000 65038.000000 13 9 1
277.000000 -311.000000 65038.000000 6 2 5
278.000000 -311.000000 65038.000000 14 11 10
279.000000 -311.000000 65038.000000 23 44 5
280.000000 -311.000000 65038.000000 36 44 1
281.000000 -311.000000 65038.000000 49 45 1
282.000000 -311.000000 65038.000000 38 44 1
283.000000 -311.000000 65038.000000 28 44 2
284.000000 -311.000000 65038.000000 26 27 3
285.000000 -311.000000 65038.000000 25 11 2
286.000000 -311.000000 65037.000000 34 46 1
287.000000 -311.000000 65037.000000 43 53 1
288.000000 -311.000000 65037.000000 35 59 1
289.000000 -311.000000 65037.000000 27 63 1
290.000000 -311.000000 65036.000000 32 59 2
291.000000 -311.000000 65036.000000 36 58 1
292.000000 -311.000000 65035.000000 34 54 1
293.000000 -311.000000 65035.000000 32 51 1
294.000000 -311.000000 65035.000000 31 53 1
295.000000 -311.000000 65035.000000 31 56 1
296.000000 -311.000000 65034.000000 31 57 1
297.000000 -311.000000 65034.000000 32 62 1
298.000000 -311.000000 65034.000000 36 71 1
299.000000 -311.000000 65032.000000 41 79 1
300.000000 -311.000000 65032.000000 45 83 2
301.000000 -311.000000 65032.000000 49 86 1
302.000000 -311.000000 65031.000000 50 86 1
303.000000 -311.000000 65030.000000 51 87 1
304.000000 -311.000000 65031.000000 52 88 1
305.000000 -311.000000 65031.000000 53 89 2
306.000000 -311.000000 65031.000000 57 87 4
307.000000 -311.000000 65031.000000 61 82 2
246.000000 -312.000000 65020.000000 52 49 1
247.000000 -312.000000 65020.000000 44 50 1
248.000000 -312.000000 65020.000000 36 51 1
249.000000 -312.000000 65022.000000 29 50 1
250.000000 -312.000000 65023.000000 33 50 1
251.000000 -312.000000 65023.000000 37 49 1
252.000000 -312.000000 65026.000000 41 42 1
253.000000 -312.000000 65026.000000 46 35 1
254.000000 -312.000000 65028.000000 50 30 1
255.000000 -312.000000 65029.000000 54 22 4
256.000000 -312.000000 65030.000000 59 35 7
257.000000 -312.000000 65032.000000 64 40 4
258.000000 -312.000000 65032.000000 58 24 1
259.000000 -312.000000 65033.000000 52 22 1
260.000000 -312.000000 65035.000000 47 21 1
261.000000 -312.000000 65035.000000 42 32 1
262.000000 -312.000000 65038.000000 40 43 1
263.000000 -312.000000 65038.000000 38 47 1
264.000000 -312.000000 65038.000000 37 51 1
265.000000 -312.000000 65038.000000 37 50 1
266.000000 -312.000000 65039.000000 37 49 1
267.000000 -312.000000 65039.000000 38 48 1
268.000000 -312.000000 65039.000000 36 47 1
269.000000 -312.000000 65040.000000 35 48 1
270.000000 -312.000000 65040.000000 39 50 1
271.000000 -312.000000 65040.000000 43 50 1
272.000000 -312.000000 65040.000000 40 51 1
273.000000 -312.000000 65039.000000 38 51 1
274.000000 -312.000000 65039.000000 31 51 1
275.000000 -312.000000 65038.000000 24 41 1
276.000000 -312.000000 65038.000000 13 4 1
277.000000 -312.000000 65038.000000 2 1 8
278.000000 -312.000000 65038.000000 11 2 15
279.000000 -312.000000 65039.000000 21 47 13
280.000000 -312.000000 65038.000000 34 52 12
281.000000 -312.000000 65038.000000 47 54 6
282.000000 -312.000000 65038.000000 43 56 1
283.000000 -312.000000 65038.000000 39 49 1
284.000000 -312.000000 65038.000000 37 42 2
285.000000 -312.000000 65038.000000 36 48 1
286.000000 -312.000000 65037.000000 44 54 1
287.000000 -312.000000 65038.000000 53 56 1
288.000000 -312.000000 65038.000000 37 61 1
289.000000 -312.000000 65037.000000 21 60 9
290.000000 -312.000000 65037.000000 26 59 17
291.000000 -312.000000 65037.000000 31 59 9
292.000000 -312.000000 65035.000000 31 53 1
293.000000 -312.000000 65035.000000 32 53 1
294.000000 -312.000000 65035.000000 31 54 1
295.000000 -312.000000 65035.000000 30 54 1
296.000000 -312.000000 65034.000000 27 55 1
297.000000 -312.000000 65034.000000 25 64 1
298.000000 -312.000000 65034.000000 34 69 1
299.000000 -312.000000 65033.000000 43 78 1
300.000000 -312.000000 65032.000000 46 84 1
301.000000 -312.000000 65032.000000 50 86 2
302.000000 -312.000000 65031.000000 51 85 2
303.000000 -312.000000 65031.000000 52 86 1
304.000000 -312.000000 65031.000000 52 88 1
305.000000 -312.000000 65031.000000 53 87 1
306.000000 -312.000000 65032.000000 58 87 2
307.000000 -312.000000 65032.000000 63 83 1
247.000000 -313.000000 65020.000000 44 53 1
248.000000 -313.000000 65021.000000 37 51 1
249.000000 -313.000000 65022.000000 30 50 1
250.000000 -313.000000 65023.000000 33 49 1
251.000000 -313.000000 65023.000000 37 49 1
252.000000 -313.000000 65026.000000 40 42 1
253.000000 -313.000000 65026.000000 43 36 1
254.000000 -313.000000 65029.000000 47 27 1
255.000000 -313.000000 65031.000000 51 23 7
256.000000 -313.000000 65032.000000 56 31 13
257.000000 -313.000000 65032.000000 61 41 7
258.000000 -313.000000 65032.000000 55 26 1
259.000000 -313.000000 65033.000000 50 21 1
260.000000 -313.000000 65035.000000 45 19 1
261.000000 -313.000000 65038.000000 39 29 1
262.000000 -313.000000 65038.000000 38 38 1
263.000000 -313.000000 65038.000000 36 44 1
264.000000 -313.000000 65038.000000 37 50 2
265.000000 -313.000000 65038.000000 38 48 1
266.000000 -313.000000 65039.000000 37 48 1
267.000000 -313.000000 65039.000000 36 49 1
268.000000 -313.000000 65039.000000 36 49 1
269.000000 -313.000000 65040.000000 36 52 1
270.000000 -313.000000 65040.000000 40 52 2
271.000000 -313.000000 65040.000000 44 58 1
272.000000 -313.000000 65040.000000 42 56 1
273.000000 -313.000000 65039.000000 40 55 1
274.000000 -313.000000 65039.000000 35 54 1
275.000000 -313.000000 65038.000000 30 53 1
276.000000 -313.000000 65038.000000 20 19 1
277.000000 -313.000000 65038.000000 11 1 11
278.000000 -313.000000 65038.000000 20 21 21
279.000000 -313.000000 65038.000000 29 51 22
280.000000 -313.000000 65038.000000 40 55 23
281.000000 -313.000000 65038.000000 51 68 12
282.000000 -313.000000 65038.000000 46 57 1
283.000000 -313.000000 65038.000000 42 63 1
284.000000 -313.000000 65038.000000 40 59 1
285.000000 -313.000000 65038.000000 38 56 1
286.000000 -313.000000 65037.000000 43 54 1
287.000000 -313.000000 65038.000000 48 59 1
288.000000 -313.000000 65038.000000 39 59 1
289.000000 -313.000000 65038.000000 31 66 16
290.000000 -313.000000 65037.000000 32 59 32
291.000000 -313.000000 65037.000000 33 61 16
292.000000 -313.000000 65035.000000 34 60 1
293.000000 -313.000000 65035.000000 35 59 1
294.000000 -313.000000 65035.000000 33 59 1
295.000000 -313.000000 65035.000000 32 60 1
296.000000 -313.000000 65034.000000 31 56 1
297.000000 -313.000000 65034.000000 31 67 1
298.000000 -313.000000 65034.000000 38 68 1
299.000000 -313.000000 65032.000000 46 78 1
300.000000 -313.000000 65032.000000 48 82 1
301.000000 -313.000000 65032.000000 51 86 2
302.000000 -313.000000 65032.000000 52 86 4
303.000000 -313.000000 65031.000000 53 86 2
304.000000 -313.000000 65030.000000 52 89 1
305.000000 -313.000000 65031.000000 51 92 1
306.000000 -313.000000 65031.000000 57 88 1
307.000000 -313.000000 65031.000000 63 85 1
246.000000 -314.000000 65022.000000 53 49 1
247.000000 -314.000000 65023.000000 44 47 1
248.000000 -314.000000 65021.000000 38 46 1
249.000000 -314.000000 65023.000000 32 47 1
250.000000 -314.000000 65023.000000 34 49 1
251.000000 -314.000000 65024.000000 37 49 1
252.000000 -314.000000 65026.000000 39 43 1
253.000000 -314.000000 65026.000000 41 34 1
254.000000 -314.000000 65029.000000 45 24 1
255.000000 -314.000000 65029.000000 49 26 4
256.000000 -314.000000 65032.000000 53 28 7
257.000000 -314.000000 65032.000000 58 28 4
258.000000 -314.000000 65032.000000 53 28 1
259.000000 -314.000000 65033.000000 49 21 1
260.000000 -314.000000 65037.000000 43 18 1
261.000000 -314.000000 65038.000000 37 24 1
262.000000 -314.000000 65038.000000 36 33 1
263.000000 -314.000000 65038.000000 35 45 1
264.000000 -314.000000 65038.000000 37 50 1
265.000000 -314.000000 65038.000000 39 45 1
266.000000 -314.000000 65038.000000 36 44 1
267.000000 -314.000000 65039.000000 34 47 1
268.000000 -314.000000 65039.000000 36 50 1
269.000000 -314.000000 65040.000000 38 52 3
270.000000 -314.000000 65040.000000 41 54 6
271.000000 -314.000000 65040.000000 45 54 3
272.000000 -314.000000 65040.000000 43 55 1
273.000000 -314.000000 65040.000000 42 55 2
274.000000 -314.000000 65040.000000 39 56 4
275.000000 -314.000000 65040.000000 36 52 2
276.000000 -314.000000 65040.000000 28 34 1
277.000000 -314.000000 65040.000000 21 37 6
278.000000 -314.000000 65039.000000 29 40 11
279.000000 -314.000000 65038.000000 38 51 11
280.000000 -314.000000 65038.000000 46 58 12
281.000000 -314.000000 65038.000000 55 58 6
282.000000 -314.000000 65038.000000 50 59 1
283.000000 -314.000000 65038.000000 45 60 1
284.000000 -314.000000 65038.000000 42 61 1
285.000000 -314.000000 65038.000000 40 58 1
286.000000 -314.000000 65038.000000 42 55 1
287.000000 -314.000000 65038.000000 44 58 1
288.000000 -314.000000 65038.000000 42 58 1
289.000000 -314.000000 65038.000000 41 59 8
290.000000 -314.000000 65037.000000 38 60 16
291.000000 -314.000000 65038.000000 36 60 8
292.000000 -314.000000 65036.000000 37 56 1
293.000000 -314.000000 65036.000000 38 57 1
294.000000 -314.000000 65035.000000 36 58 1
295.000000 -314.000000 65035.000000 35 57 1
296.000000 -314.000000 65034.000000 36 57 1
297.000000 -314.000000 65034.000000 37 63 1
298.000000 -314.000000 65033.000000 43 68 1
299.000000 -314.000000 65032.000000 49 78 1
300.000000 -314.000000 65032.000000 51 81 1
301.000000 -314.000000 65032.000000 53 82 1
302.000000 -314.000000 65032.000000 53 84 2
303.000000 -314.000000 65031.000000 54 85 1
304.000000 -314.000000 65031.000000 52 91 1
305.000000 -314.000000 65031.000000 50 90 1
