ply
    format ascii 1.0
    element vertex 10793
    property float x
    property float y
    property float z
    property uchar red
    property uchar green
    property uchar blue
    end_header
285.000000 -229.000000 65026.000000 18 41 1
286.000000 -229.000000 65026.000000 19 42 1
287.000000 -229.000000 65026.000000 20 55 1
288.000000 -229.000000 65025.000000 21 54 1
289.000000 -229.000000 65026.000000 23 56 1
290.000000 -229.000000 65026.000000 20 53 1
291.000000 -229.000000 65023.000000 17 51 1
292.000000 -229.000000 65024.000000 22 55 1
293.000000 -229.000000 65023.000000 28 61 1
294.000000 -229.000000 65023.000000 25 63 1
295.000000 -229.000000 65023.000000 23 65 1
296.000000 -229.000000 65022.000000 34 66 1
297.000000 -229.000000 65021.000000 45 67 3
298.000000 -229.000000 65021.000000 51 76 6
299.000000 -229.000000 65020.000000 57 85 3
300.000000 -229.000000 65020.000000 58 91 1
301.000000 -229.000000 65019.000000 60 93 2
302.000000 -229.000000 65018.000000 57 95 4
303.000000 -229.000000 65017.000000 54 101 2
304.000000 -229.000000 65015.000000 58 99 1
305.000000 -229.000000 65014.000000 62 95 1
306.000000 -229.000000 65013.000000 63 98 1
307.000000 -229.000000 65012.000000 64 101 1
308.000000 -229.000000 65011.000000 62 100 1
309.000000 -229.000000 65011.000000 60 99 2
310.000000 -229.000000 65010.000000 62 99 4
311.000000 -229.000000 65010.000000 64 100 9
312.000000 -229.000000 65010.000000 63 84 15
252.000000 -230.000000 65013.000000 44 71 1
253.000000 -230.000000 65013.000000 47 65 1
254.000000 -230.000000 65015.000000 46 64 1
255.000000 -230.000000 65017.000000 45 60 1
256.000000 -230.000000 65017.000000 44 54 1
257.000000 -230.000000 65018.000000 43 45 1
258.000000 -230.000000 65020.000000 42 36 1
259.000000 -230.000000 65020.000000 41 31 3
260.000000 -230.000000 65021.000000 41 27 5
261.000000 -230.000000 65022.000000 41 22 3
262.000000 -230.000000 65023.000000 42 17 1
263.000000 -230.000000 65024.000000 43 16 1
264.000000 -230.000000 65025.000000 43 16 1
265.000000 -230.000000 65026.000000 44 10 2
266.000000 -230.000000 65026.000000 43 5 3
267.000000 -230.000000 65026.000000 42 4 8
268.000000 -230.000000 65026.000000 43 4 14
269.000000 -230.000000 65026.000000 45 3 7
270.000000 -230.000000 65026.000000 45 2 1
271.000000 -230.000000 65026.000000 46 6 1
272.000000 -230.000000 65026.000000 44 10 1
273.000000 -230.000000 65026.000000 42 9 1
274.000000 -230.000000 65026.000000 44 9 2
275.000000 -230.000000 65026.000000 46 6 1
276.000000 -230.000000 65026.000000 45 3 1
277.000000 -230.000000 65026.000000 45 3 1
278.000000 -230.000000 65026.000000 42 4 1
279.000000 -230.000000 65026.000000 39 3 1
280.000000 -230.000000 65025.000000 39 2 1
281.000000 -230.000000 65025.000000 39 4 2
282.000000 -230.000000 65025.000000 38 7 4
283.000000 -230.000000 65025.000000 38 10 2
284.000000 -230.000000 65025.000000 32 13 1
285.000000 -230.000000 65025.000000 26 33 1
286.000000 -230.000000 65025.000000 24 36 1
287.000000 -230.000000 65025.000000 23 51 1
288.000000 -230.000000 65025.000000 23 54 1
289.000000 -230.000000 65026.000000 23 54 1
290.000000 -230.000000 65026.000000 18 55 1
291.000000 -230.000000 65024.000000 14 55 1
292.000000 -230.000000 65024.000000 20 56 1
293.000000 -230.000000 65023.000000 26 62 1
294.000000 -230.000000 65023.000000 21 65 1
295.000000 -230.000000 65023.000000 16 64 1
296.000000 -230.000000 65023.000000 30 64 1
297.000000 -230.000000 65022.000000 44 66 4
298.000000 -230.000000 65021.000000 50 67 7
299.000000 -230.000000 65021.000000 57 88 4
300.000000 -230.000000 65020.000000 60 91 1
301.000000 -230.000000 65019.000000 63 95 2
302.000000 -230.000000 65019.000000 57 99 2
303.000000 -230.000000 65017.000000 51 99 1
304.000000 -230.000000 65016.000000 58 98 1
305.000000 -230.000000 65015.000000 65 95 1
306.000000 -230.000000 65013.000000 66 92 1
307.000000 -230.000000 65012.000000 68 94 1
308.000000 -230.000000 65012.000000 61 96 1
309.000000 -230.000000 65011.000000 55 94 1
310.000000 -230.000000 65010.000000 55 92 2
311.000000 -230.000000 65010.000000 55 90 5
312.000000 -230.000000 65010.000000 57 88 8
252.000000 -231.000000 65013.000000 47 69 1
253.000000 -231.000000 65013.000000 50 63 1
254.000000 -231.000000 65015.000000 51 61 1
255.000000 -231.000000 65017.000000 51 60 1
256.000000 -231.000000 65017.000000 50 48 1
257.000000 -231.000000 65018.000000 48 35 1
258.000000 -231.000000 65020.000000 48 25 1
259.000000 -231.000000 65021.000000 48 16 1
260.000000 -231.000000 65022.000000 47 12 1
261.000000 -231.000000 65023.000000 46 9 1
262.000000 -231.000000 65023.000000 47 8 1
263.000000 -231.000000 65024.000000 49 8 1
264.000000 -231.000000 65025.000000 48 7 1
265.000000 -231.000000 65026.000000 48 6 2
266.000000 -231.000000 65026.000000 47 5 3
267.000000 -231.000000 65027.000000 46 2 15
268.000000 -231.000000 65026.000000 49 1 28
269.000000 -231.000000 65026.000000 52 1 14
270.000000 -231.000000 65026.000000 51 2 1
271.000000 -231.000000 65026.000000 50 3 1
272.000000 -231.000000 65026.000000 48 4 1
273.000000 -231.000000 65026.000000 47 5 2
274.000000 -231.000000 65026.000000 48 4 3
275.000000 -231.000000 65026.000000 49 4 2
276.000000 -231.000000 65026.000000 51 3 1
277.000000 -231.000000 65026.000000 52 3 1
278.000000 -231.000000 65026.000000 47 2 1
279.000000 -231.000000 65026.000000 43 1 1
280.000000 -231.000000 65026.000000 44 2 1
281.000000 -231.000000 65026.000000 45 2 4
282.000000 -231.000000 65025.000000 43 4 7
283.000000 -231.000000 65025.000000 42 6 4
284.000000 -231.000000 65025.000000 36 11 1
285.000000 -231.000000 65025.000000 31 26 1
286.000000 -231.000000 65025.000000 29 36 1
287.000000 -231.000000 65025.000000 27 47 1
288.000000 -231.000000 65025.000000 29 54 1
289.000000 -231.000000 65026.000000 31 58 1
290.000000 -231.000000 65026.000000 25 57 1
291.000000 -231.000000 65024.000000 19 63 1
292.000000 -231.000000 65024.000000 27 63 1
293.000000 -231.000000 65024.000000 35 63 1
294.000000 -231.000000 65023.000000 30 66 1
295.000000 -231.000000 65023.000000 26 68 1
296.000000 -231.000000 65022.000000 34 64 1
297.000000 -231.000000 65022.000000 42 65 5
298.000000 -231.000000 65021.000000 51 75 9
299.000000 -231.000000 65021.000000 59 92 5
300.000000 -231.000000 65020.000000 63 95 2
301.000000 -231.000000 65019.000000 68 102 1
302.000000 -231.000000 65019.000000 64 101 1
303.000000 -231.000000 65017.000000 61 100 1
304.000000 -231.000000 65016.000000 66 99 1
305.000000 -231.000000 65015.000000 72 95 1
306.000000 -231.000000 65013.000000 75 92 1
307.000000 -231.000000 65012.000000 78 92 1
308.000000 -231.000000 65011.000000 68 89 1
309.000000 -231.000000 65010.000000 59 86 1
310.000000 -231.000000 65010.000000 55 85 1
311.000000 -231.000000 65010.000000 51 85 1
312.000000 -231.000000 65010.000000 54 83 1
252.000000 -232.000000 65013.000000 49 67 1
253.000000 -232.000000 65013.000000 54 68 1
254.000000 -232.000000 65014.000000 56 70 2
255.000000 -232.000000 65017.000000 58 68 1
256.000000 -232.000000 65017.000000 56 43 1
257.000000 -232.000000 65020.000000 54 32 1
258.000000 -232.000000 65020.000000 54 14 1
259.000000 -232.000000 65021.000000 55 16 1
260.000000 -232.000000 65022.000000 53 7 1
261.000000 -232.000000 65023.000000 52 8 2
262.000000 -232.000000 65023.000000 53 4 4
263.000000 -232.000000 65024.000000 55 5 2
264.000000 -232.000000 65025.000000 53 6 1
265.000000 -232.000000 65026.000000 52 5 1
266.000000 -232.000000 65026.000000 51 5 2
267.000000 -232.000000 65027.000000 51 2 9
268.000000 -232.000000 65027.000000 55 1 17
269.000000 -232.000000 65027.000000 60 1 9
270.000000 -232.000000 65026.000000 57 2 1
271.000000 -232.000000 65027.000000 54 4 1
272.000000 -232.000000 65026.000000 53 7 1
273.000000 -232.000000 65026.000000 53 5 9
274.000000 -232.000000 65027.000000 53 4 18
275.000000 -232.000000 65026.000000 53 4 9
276.000000 -232.000000 65026.000000 56 4 1
277.000000 -232.000000 65026.000000 60 3 1
278.000000 -232.000000 65026.000000 53 2 1
279.000000 -232.000000 65026.000000 47 2 1
280.000000 -232.000000 65026.000000 49 2 1
281.000000 -232.000000 65026.000000 51 1 2
282.000000 -232.000000 65026.000000 48 1 4
283.000000 -232.000000 65025.000000 46 6 2
284.000000 -232.000000 65025.000000 41 10 1
285.000000 -232.000000 65025.000000 37 24 1
286.000000 -232.000000 65025.000000 34 37 1
287.000000 -232.000000 65025.000000 31 49 1
288.000000 -232.000000 65025.000000 35 54 1
289.000000 -232.000000 65025.000000 40 56 1
290.000000 -232.000000 65025.000000 32 59 1
291.000000 -232.000000 65024.000000 25 61 1
292.000000 -232.000000 65025.000000 34 64 1
293.000000 -232.000000 65023.000000 44 65 1
294.000000 -232.000000 65023.000000 40 67 1
295.000000 -232.000000 65023.000000 36 65 1
296.000000 -232.000000 65022.000000 38 64 1
297.000000 -232.000000 65022.000000 41 60 3
298.000000 -232.000000 65021.000000 51 84 5
299.000000 -232.000000 65021.000000 62 90 3
300.000000 -232.000000 65020.000000 67 100 2
301.000000 -232.000000 65020.000000 73 101 12
302.000000 -232.000000 65019.000000 72 102 21
303.000000 -232.000000 65017.000000 72 101 11
304.000000 -232.000000 65017.000000 75 100 1
305.000000 -232.000000 65015.000000 79 96 1
306.000000 -232.000000 65015.000000 84 93 2
307.000000 -232.000000 65015.000000 89 92 1
308.000000 -232.000000 65010.000000 76 82 1
309.000000 -232.000000 65010.000000 63 85 1
310.000000 -232.000000 65010.000000 55 86 1
311.000000 -232.000000 65010.000000 47 84 1
312.000000 -232.000000 65010.000000 51 82 1
252.000000 -233.000000 65013.000000 49 67 1
253.000000 -233.000000 65013.000000 53 72 2
254.000000 -233.000000 65014.000000 58 74 3
255.000000 -233.000000 65016.000000 62 76 2
256.000000 -233.000000 65017.000000 60 56 1
257.000000 -233.000000 65020.000000 59 29 1
258.000000 -233.000000 65020.000000 59 23 1
259.000000 -233.000000 65020.000000 60 17 1
260.000000 -233.000000 65021.000000 58 14 1
261.000000 -233.000000 65023.000000 57 12 4
262.000000 -233.000000 65023.000000 57 12 8
263.000000 -233.000000 65024.000000 57 12 4
264.000000 -233.000000 65025.000000 55 6 1
265.000000 -233.000000 65026.000000 53 3 1
266.000000 -233.000000 65026.000000 51 3 1
267.000000 -233.000000 65027.000000 49 3 3
268.000000 -233.000000 65027.000000 52 2 6
269.000000 -233.000000 65027.000000 55 2 3
270.000000 -233.000000 65027.000000 54 2 1
271.000000 -233.000000 65027.000000 52 11 1
272.000000 -233.000000 65027.000000 52 11 1
273.000000 -233.000000 65027.000000 52 12 17
274.000000 -233.000000 65027.000000 53 11 34
275.000000 -233.000000 65026.000000 53 10 17
276.000000 -233.000000 65026.000000 54 3 1
277.000000 -233.000000 65026.000000 55 7 1
278.000000 -233.000000 65026.000000 51 2 1
279.000000 -233.000000 65026.000000 48 3 1
280.000000 -233.000000 65026.000000 52 1 1
281.000000 -233.000000 65026.000000 57 1 1
282.000000 -233.000000 65025.000000 51 1 1
283.000000 -233.000000 65025.000000 46 7 1
284.000000 -233.000000 65025.000000 41 11 1
285.000000 -233.000000 65025.000000 37 22 1
286.000000 -233.000000 65025.000000 32 40 1
287.000000 -233.000000 65025.000000 26 51 1
288.000000 -233.000000 65025.000000 27 50 1
289.000000 -233.000000 65025.000000 28 49 1
290.000000 -233.000000 65025.000000 20 51 1
291.000000 -233.000000 65024.000000 13 53 1
292.000000 -233.000000 65024.000000 21 52 1
293.000000 -233.000000 65023.000000 30 51 1
294.000000 -233.000000 65023.000000 28 53 1
295.000000 -233.000000 65022.000000 27 55 1
296.000000 -233.000000 65022.000000 30 55 1
297.000000 -233.000000 65022.000000 33 55 1
298.000000 -233.000000 65022.000000 42 69 1
299.000000 -233.000000 65021.000000 51 88 2
300.000000 -233.000000 65021.000000 57 95 3
301.000000 -233.000000 65020.000000 64 98 22
302.000000 -233.000000 65019.000000 64 96 42
303.000000 -233.000000 65018.000000 65 95 21
304.000000 -233.000000 65017.000000 69 96 1
305.000000 -233.000000 65016.000000 74 103 2
306.000000 -233.000000 65016.000000 77 95 4
307.000000 -233.000000 65016.000000 81 92 2
308.000000 -233.000000 65010.000000 72 88 1
309.000000 -233.000000 65010.000000 63 85 1
310.000000 -233.000000 65010.000000 59 84 1
311.000000 -233.000000 65010.000000 55 83 1
251.000000 -234.000000 65013.000000 46 68 7
252.000000 -234.000000 65013.000000 49 68 1
253.000000 -234.000000 65013.000000 53 76 2
254.000000 -234.000000 65014.000000 60 81 3
255.000000 -234.000000 65016.000000 67 76 2
256.000000 -234.000000 65017.000000 65 69 1
257.000000 -234.000000 65020.000000 64 42 1
258.000000 -234.000000 65020.000000 64 36 1
259.000000 -234.000000 65020.000000 65 19 1
260.000000 -234.000000 65022.000000 63 16 1
261.000000 -234.000000 65023.000000 62 11 2
262.000000 -234.000000 65023.000000 60 11 4
263.000000 -234.000000 65024.000000 59 9 2
264.000000 -234.000000 65025.000000 56 7 1
265.000000 -234.000000 65026.000000 54 5 1
266.000000 -234.000000 65026.000000 50 3 1
267.000000 -234.000000 65027.000000 47 2 2
268.000000 -234.000000 65027.000000 49 2 3
269.000000 -234.000000 65027.000000 51 2 2
270.000000 -234.000000 65027.000000 51 3 1
271.000000 -234.000000 65027.000000 51 6 1
272.000000 -234.000000 65027.000000 51 10 1
273.000000 -234.000000 65027.000000 52 10 9
274.000000 -234.000000 65027.000000 53 10 17
275.000000 -234.000000 65026.000000 54 8 9
276.000000 -234.000000 65026.000000 52 3 1
277.000000 -234.000000 65026.000000 50 3 1
278.000000 -234.000000 65026.000000 50 3 1
279.000000 -234.000000 65026.000000 50 3 1
280.000000 -234.000000 65026.000000 56 1 1
281.000000 -234.000000 65025.000000 63 1 1
282.000000 -234.000000 65025.000000 54 1 1
283.000000 -234.000000 65025.000000 46 5 7
284.000000 -234.000000 65025.000000 42 12 13
285.000000 -234.000000 65025.000000 38 30 7
286.000000 -234.000000 65025.000000 30 44 1
287.000000 -234.000000 65025.000000 22 44 1
288.000000 -234.000000 65025.000000 19 44 1
289.000000 -234.000000 65026.000000 17 44 1
290.000000 -234.000000 65025.000000 9 44 1
291.000000 -234.000000 65025.000000 1 42 1
292.000000 -234.000000 65025.000000 8 41 1
293.000000 -234.000000 65025.000000 16 42 1
294.000000 -234.000000 65023.000000 17 43 1
295.000000 -234.000000 65023.000000 19 45 1
296.000000 -234.000000 65023.000000 22 47 1
297.000000 -234.000000 65022.000000 26 53 1
298.000000 -234.000000 65022.000000 33 51 1
299.000000 -234.000000 65022.000000 41 74 1
300.000000 -234.000000 65021.000000 48 91 2
301.000000 -234.000000 65020.000000 55 90 12
302.000000 -234.000000 65020.000000 57 90 22
303.000000 -234.000000 65019.000000 59 91 11
304.000000 -234.000000 65017.000000 64 93 1
305.000000 -234.000000 65017.000000 69 95 1
306.000000 -234.000000 65016.000000 71 97 2
307.000000 -234.000000 65016.000000 73 91 1
308.000000 -234.000000 65010.000000 68 92 1
309.000000 -234.000000 65010.000000 63 86 1
310.000000 -234.000000 65010.000000 63 83 1
311.000000 -234.000000 65010.000000 63 83 1
251.000000 -235.000000 65013.000000 44 64 1
252.000000 -235.000000 65013.000000 49 72 1
253.000000 -235.000000 65013.000000 54 80 2
254.000000 -235.000000 65014.000000 58 82 3
255.000000 -235.000000 65015.000000 63 77 2
256.000000 -235.000000 65017.000000 64 66 1
257.000000 -235.000000 65020.000000 65 55 1
258.000000 -235.000000 65020.000000 64 34 1
259.000000 -235.000000 65021.000000 64 21 1
260.000000 -235.000000 65022.000000 61 14 1
261.000000 -235.000000 65023.000000 58 10 1
262.000000 -235.000000 65023.000000 58 8 1
263.000000 -235.000000 65024.000000 59 7 1
264.000000 -235.000000 65025.000000 56 7 1
265.000000 -235.000000 65026.000000 54 7 1
266.000000 -235.000000 65026.000000 51 3 1
267.000000 -235.000000 65027.000000 49 2 1
268.000000 -235.000000 65027.000000 50 2 1
269.000000 -235.000000 65027.000000 51 3 1
270.000000 -235.000000 65028.000000 49 3 1
271.000000 -235.000000 65027.000000 47 3 1
272.000000 -235.000000 65027.000000 50 4 1
273.000000 -235.000000 65027.000000 52 5 1
274.000000 -235.000000 65028.000000 54 5 1
275.000000 -235.000000 65027.000000 56 6 1
276.000000 -235.000000 65027.000000 53 4 1
277.000000 -235.000000 65026.000000 50 3 1
278.000000 -235.000000 65026.000000 49 3 1
279.000000 -235.000000 65026.000000 48 4 1
280.000000 -235.000000 65026.000000 53 2 1
281.000000 -235.000000 65026.000000 59 1 1
282.000000 -235.000000 65025.000000 52 2 1
283.000000 -235.000000 65025.000000 45 3 13
284.000000 -235.000000 65025.000000 41 15 26
285.000000 -235.000000 65025.000000 38 39 13
286.000000 -235.000000 65025.000000 31 44 1
287.000000 -235.000000 65025.000000 25 49 1
288.000000 -235.000000 65025.000000 21 48 1
289.000000 -235.000000 65025.000000 18 47 1
290.000000 -235.000000 65025.000000 12 47 1
291.000000 -235.000000 65024.000000 7 48 1
292.000000 -235.000000 65024.000000 13 46 1
293.000000 -235.000000 65023.000000 18 44 1
294.000000 -235.000000 65023.000000 19 46 1
295.000000 -235.000000 65023.000000 21 49 1
296.000000 -235.000000 65022.000000 23 50 1
297.000000 -235.000000 65022.000000 26 52 1
298.000000 -235.000000 65022.000000 32 55 2
299.000000 -235.000000 65022.000000 38 60 1
300.000000 -235.000000 65021.000000 44 81 1
301.000000 -235.000000 65020.000000 51 84 2
302.000000 -235.000000 65019.000000 53 84 3
303.000000 -235.000000 65019.000000 56 85 2
304.000000 -235.000000 65017.000000 59 87 1
305.000000 -235.000000 65016.000000 62 90 1
306.000000 -235.000000 65015.000000 61 90 1
307.000000 -235.000000 65015.000000 61 90 1
251.000000 -236.000000 65010.000000 43 70 1
252.000000 -236.000000 65011.000000 49 77 1
253.000000 -236.000000 65012.000000 55 79 2
254.000000 -236.000000 65013.000000 57 83 3
255.000000 -236.000000 65015.000000 60 74 2
256.000000 -236.000000 65017.000000 63 64 1
257.000000 -236.000000 65020.000000 66 51 1
258.000000 -236.000000 65020.000000 65 33 1
259.000000 -236.000000 65021.000000 64 19 1
260.000000 -236.000000 65022.000000 59 13 1
261.000000 -236.000000 65023.000000 54 8 1
262.000000 -236.000000 65023.000000 57 7 1
263.000000 -236.000000 65024.000000 60 7 1
264.000000 -236.000000 65025.000000 57 8 1
265.000000 -236.000000 65026.000000 54 5 2
266.000000 -236.000000 65027.000000 53 4 4
267.000000 -236.000000 65027.000000 52 4 2
268.000000 -236.000000 65028.000000 52 4 1
269.000000 -236.000000 65029.000000 52 3 1
270.000000 -236.000000 65029.000000 48 4 1
271.000000 -236.000000 65029.000000 44 4 1
272.000000 -236.000000 65026.000000 48 5 1
273.000000 -236.000000 65028.000000 53 6 4
274.000000 -236.000000 65028.000000 56 12 8
275.000000 -236.000000 65028.000000 59 9 5
276.000000 -236.000000 65026.000000 55 7 1
277.000000 -236.000000 65027.000000 51 10 1
278.000000 -236.000000 65026.000000 48 14 1
279.000000 -236.000000 65026.000000 46 11 3
280.000000 -236.000000 65026.000000 50 9 4
281.000000 -236.000000 65026.000000 55 7 2
282.000000 -236.000000 65026.000000 50 5 1
283.000000 -236.000000 65025.000000 45 4 7
284.000000 -236.000000 65025.000000 41 18 13
285.000000 -236.000000 65025.000000 38 37 7
286.000000 -236.000000 65025.000000 33 44 1
287.000000 -236.000000 65025.000000 28 46 1
288.000000 -236.000000 65025.000000 23 48 1
289.000000 -236.000000 65025.000000 19 49 1
290.000000 -236.000000 65025.000000 16 50 1
291.000000 -236.000000 65024.000000 14 50 1
292.000000 -236.000000 65024.000000 17 50 1
293.000000 -236.000000 65023.000000 21 54 3
294.000000 -236.000000 65023.000000 22 58 5
295.000000 -236.000000 65023.000000 23 56 3
296.000000 -236.000000 65023.000000 24 54 1
297.000000 -236.000000 65023.000000 26 53 1
298.000000 -236.000000 65022.000000 30 59 1
299.000000 -236.000000 65022.000000 35 62 1
300.000000 -236.000000 65022.000000 41 72 1
301.000000 -236.000000 65020.000000 47 80 1
302.000000 -236.000000 65020.000000 50 83 2
303.000000 -236.000000 65019.000000 53 84 1
304.000000 -236.000000 65017.000000 54 84 1
305.000000 -236.000000 65016.000000 55 89 1
306.000000 -236.000000 65016.000000 52 88 1
307.000000 -236.000000 65015.000000 49 87 1
250.000000 -237.000000 65009.000000 39 70 1
251.000000 -237.000000 65010.000000 48 77 1
252.000000 -237.000000 65011.000000 52 77 1
253.000000 -237.000000 65012.000000 56 78 2
254.000000 -237.000000 65013.000000 59 80 3
255.000000 -237.000000 65015.000000 63 71 2
256.000000 -237.000000 65017.000000 65 61 1
257.000000 -237.000000 65017.000000 67 47 1
258.000000 -237.000000 65020.000000 69 35 1
259.000000 -237.000000 65020.000000 71 18 1
260.000000 -237.000000 65021.000000 65 12 1
261.000000 -237.000000 65022.000000 59 6 1
262.000000 -237.000000 65023.000000 60 7 1
263.000000 -237.000000 65023.000000 61 8 1
264.000000 -237.000000 65025.000000 59 6 1
265.000000 -237.000000 65026.000000 57 3 4
266.000000 -237.000000 65027.000000 55 4 7
267.000000 -237.000000 65028.000000 53 5 4
268.000000 -237.000000 65028.000000 52 4 1
269.000000 -237.000000 65028.000000 51 3 1
270.000000 -237.000000 65029.000000 49 3 1
271.000000 -237.000000 65028.000000 47 4 1
272.000000 -237.000000 65027.000000 50 4 1
273.000000 -237.000000 65028.000000 53 8 8
274.000000 -237.000000 65028.000000 56 10 16
275.000000 -237.000000 65028.000000 58 12 9
276.000000 -237.000000 65027.000000 55 12 2
277.000000 -237.000000 65026.000000 52 12 2
278.000000 -237.000000 65027.000000 50 12 2
279.000000 -237.000000 65027.000000 48 12 5
280.000000 -237.000000 65026.000000 50 10 8
281.000000 -237.000000 65026.000000 52 9 4
282.000000 -237.000000 65026.000000 49 4 1
283.000000 -237.000000 65026.000000 47 5 1
284.000000 -237.000000 65025.000000 42 19 1
285.000000 -237.000000 65026.000000 38 36 1
286.000000 -237.000000 65025.000000 32 41 1
287.000000 -237.000000 65025.000000 27 44 1
288.000000 -237.000000 65025.000000 22 42 1
289.000000 -237.000000 65025.000000 17 41 1
290.000000 -237.000000 65025.000000 14 43 1
291.000000 -237.000000 65024.000000 11 45 1
292.000000 -237.000000 65023.000000 14 46 1
293.000000 -237.000000 65023.000000 17 54 5
294.000000 -237.000000 65023.000000 18 55 9
295.000000 -237.000000 65023.000000 20 57 5
296.000000 -237.000000 65023.000000 19 56 1
297.000000 -237.000000 65022.000000 19 55 1
298.000000 -237.000000 65022.000000 25 57 1
299.000000 -237.000000 65022.000000 32 64 1
300.000000 -237.000000 65022.000000 39 68 1
301.000000 -237.000000 65020.000000 46 77 1
302.000000 -237.000000 65020.000000 51 81 1
303.000000 -237.000000 65020.000000 57 86 1
304.000000 -237.000000 65019.000000 58 87 1
305.000000 -237.000000 65019.000000 59 89 1
306.000000 -237.000000 65016.000000 57 88 1
250.000000 -238.000000 65010.000000 43 77 1
251.000000 -238.000000 65009.000000 53 76 1
252.000000 -238.000000 65011.000000 55 73 1
253.000000 -238.000000 65012.000000 57 75 1
254.000000 -238.000000 65013.000000 62 78 2
255.000000 -238.000000 65015.000000 67 75 1
256.000000 -238.000000 65017.000000 67 58 1
257.000000 -238.000000 65017.000000 68 48 1
258.000000 -238.000000 65019.000000 73 37 2
259.000000 -238.000000 65020.000000 78 15 1
260.000000 -238.000000 65020.000000 71 11 1
261.000000 -238.000000 65022.000000 64 7 1
262.000000 -238.000000 65023.000000 63 4 1
263.000000 -238.000000 65023.000000 63 4 7
264.000000 -238.000000 65025.000000 62 5 14
265.000000 -238.000000 65026.000000 61 4 9
266.000000 -238.000000 65026.000000 57 4 4
267.000000 -238.000000 65027.000000 54 4 2
268.000000 -238.000000 65027.000000 52 4 1
269.000000 -238.000000 65028.000000 51 3 1
270.000000 -238.000000 65028.000000 51 3 1
271.000000 -238.000000 65028.000000 51 3 1
272.000000 -238.000000 65028.000000 52 3 1
273.000000 -238.000000 65028.000000 54 2 4
274.000000 -238.000000 65028.000000 56 2 8
275.000000 -238.000000 65028.000000 58 3 5
276.000000 -238.000000 65027.000000 56 5 1
277.000000 -238.000000 65026.000000 54 7 1
278.000000 -238.000000 65026.000000 52 9 1
279.000000 -238.000000 65026.000000 51 8 3
280.000000 -238.000000 65026.000000 50 4 4
281.000000 -238.000000 65026.000000 50 3 2
282.000000 -238.000000 65026.000000 49 3 1
283.000000 -238.000000 65026.000000 49 5 1
284.000000 -238.000000 65025.000000 44 20 1
285.000000 -238.000000 65026.000000 39 33 1
286.000000 -238.000000 65026.000000 32 39 1
287.000000 -238.000000 65025.000000 26 41 1
288.000000 -238.000000 65025.000000 20 34 1
289.000000 -238.000000 65024.000000 15 43 1
290.000000 -238.000000 65024.000000 11 41 1
291.000000 -238.000000 65023.000000 8 41 1
292.000000 -238.000000 65023.000000 11 42 1
293.000000 -238.000000 65022.000000 14 44 3
294.000000 -238.000000 65022.000000 15 46 5
295.000000 -238.000000 65023.000000 17 48 3
296.000000 -238.000000 65022.000000 14 51 1
297.000000 -238.000000 65022.000000 12 53 1
298.000000 -238.000000 65022.000000 21 55 1
299.000000 -238.000000 65022.000000 30 66 1
300.000000 -238.000000 65021.000000 38 65 1
301.000000 -238.000000 65020.000000 46 76 1
302.000000 -238.000000 65020.000000 53 79 1
303.000000 -238.000000 65020.000000 61 85 10
304.000000 -238.000000 65019.000000 62 91 19
305.000000 -238.000000 65018.000000 64 90 10
306.000000 -238.000000 65018.000000 63 89 1
250.000000 -239.000000 65010.000000 40 72 2
251.000000 -239.000000 65011.000000 48 76 1
252.000000 -239.000000 65012.000000 50 73 1
253.000000 -239.000000 65013.000000 53 71 1
254.000000 -239.000000 65014.000000 58 77 1
255.000000 -239.000000 65016.000000 64 80 1
256.000000 -239.000000 65017.000000 65 60 1
257.000000 -239.000000 65017.000000 66 49 2
258.000000 -239.000000 65018.000000 67 24 4
259.000000 -239.000000 65020.000000 69 12 2
260.000000 -239.000000 65020.000000 65 9 1
261.000000 -239.000000 65021.000000 62 8 1
262.000000 -239.000000 65022.000000 60 4 1
263.000000 -239.000000 65023.000000 59 4 14
264.000000 -239.000000 65025.000000 60 4 27
265.000000 -239.000000 65026.000000 61 4 14
266.000000 -239.000000 65027.000000 58 5 2
267.000000 -239.000000 65028.000000 55 7 1
268.000000 -239.000000 65028.000000 53 6 1
269.000000 -239.000000 65028.000000 51 6 1
270.000000 -239.000000 65029.000000 51 5 1
271.000000 -239.000000 65029.000000 52 4 1
272.000000 -239.000000 65028.000000 52 3 1
273.000000 -239.000000 65028.000000 53 2 1
274.000000 -239.000000 65029.000000 55 2 1
275.000000 -239.000000 65028.000000 58 3 1
276.000000 -239.000000 65027.000000 56 5 1
277.000000 -239.000000 65026.000000 54 5 1
278.000000 -239.000000 65026.000000 53 9 1
279.000000 -239.000000 65026.000000 51 7 1
280.000000 -239.000000 65026.000000 49 6 1
281.000000 -239.000000 65026.000000 48 2 1
282.000000 -239.000000 65026.000000 47 3 1
283.000000 -239.000000 65026.000000 47 5 1
284.000000 -239.000000 65025.000000 43 17 1
285.000000 -239.000000 65025.000000 40 30 1
286.000000 -239.000000 65025.000000 33 41 2
287.000000 -239.000000 65025.000000 26 49 1
288.000000 -239.000000 65025.000000 22 47 1
289.000000 -239.000000 65025.000000 18 45 1
290.000000 -239.000000 65024.000000 19 47 1
291.000000 -239.000000 65023.000000 21 50 1
292.000000 -239.000000 65023.000000 20 48 1
293.000000 -239.000000 65023.000000 19 47 1
294.000000 -239.000000 65023.000000 19 46 1
295.000000 -239.000000 65023.000000 20 46 1
296.000000 -239.000000 65023.000000 20 50 1
297.000000 -239.000000 65023.000000 19 50 1
298.000000 -239.000000 65022.000000 25 57 1
299.000000 -239.000000 65022.000000 31 68 1
300.000000 -239.000000 65021.000000 38 71 1
301.000000 -239.000000 65021.000000 46 75 1
302.000000 -239.000000 65020.000000 52 80 1
303.000000 -239.000000 65020.000000 59 85 19
304.000000 -239.000000 65019.000000 59 84 37
305.000000 -239.000000 65019.000000 60 84 19
306.000000 -239.000000 65016.000000 61 84 1
307.000000 -239.000000 65016.000000 63 84 1
250.000000 -240.000000 65010.000000 37 68 1
251.000000 -240.000000 65010.000000 44 76 1
252.000000 -240.000000 65011.000000 46 73 1
253.000000 -240.000000 65013.000000 49 71 1
254.000000 -240.000000 65014.000000 55 77 1
255.000000 -240.000000 65016.000000 62 75 1
256.000000 -240.000000 65017.000000 63 63 1
257.000000 -240.000000 65017.000000 64 50 1
258.000000 -240.000000 65018.000000 62 11 2
259.000000 -240.000000 65020.000000 61 9 1
260.000000 -240.000000 65020.000000 60 7 1
261.000000 -240.000000 65020.000000 60 6 1
262.000000 -240.000000 65022.000000 58 5 1
263.000000 -240.000000 65023.000000 56 4 7
264.000000 -240.000000 65025.000000 59 4 14
265.000000 -240.000000 65026.000000 62 4 8
266.000000 -240.000000 65027.000000 59 6 1
267.000000 -240.000000 65028.000000 56 8 1
268.000000 -240.000000 65028.000000 54 9 1
269.000000 -240.000000 65029.000000 52 7 1
270.000000 -240.000000 65029.000000 52 6 1
271.000000 -240.000000 65029.000000 53 5 1
272.000000 -240.000000 65029.000000 52 3 1
273.000000 -240.000000 65029.000000 52 3 1
274.000000 -240.000000 65029.000000 55 5 1
275.000000 -240.000000 65028.000000 58 5 1
276.000000 -240.000000 65028.000000 56 7 1
277.000000 -240.000000 65026.000000 55 7 1
278.000000 -240.000000 65026.000000 53 10 1
279.000000 -240.000000 65026.000000 52 9 1
280.000000 -240.000000 65026.000000 49 8 1
281.000000 -240.000000 65026.000000 46 3 1
282.000000 -240.000000 65026.000000 45 3 1
283.000000 -240.000000 65026.000000 45 7 1
284.000000 -240.000000 65025.000000 43 14 1
285.000000 -240.000000 65025.000000 42 30 1
286.000000 -240.000000 65025.000000 34 43 1
287.000000 -240.000000 65026.000000 27 47 1
288.000000 -240.000000 65025.000000 24 50 1
289.000000 -240.000000 65025.000000 22 47 1
290.000000 -240.000000 65025.000000 28 50 1
291.000000 -240.000000 65023.000000 34 51 1
292.000000 -240.000000 65023.000000 29 53 1
293.000000 -240.000000 65023.000000 24 46 1
294.000000 -240.000000 65023.000000 24 50 1
295.000000 -240.000000 65023.000000 24 50 1
296.000000 -240.000000 65023.000000 25 50 1
297.000000 -240.000000 65023.000000 27 51 1
298.000000 -240.000000 65022.000000 29 60 1
299.000000 -240.000000 65022.000000 32 66 1
300.000000 -240.000000 65022.000000 39 76 1
301.000000 -240.000000 65020.000000 47 74 1
302.000000 -240.000000 65020.000000 52 82 1
303.000000 -240.000000 65020.000000 57 81 11
304.000000 -240.000000 65019.000000 56 80 20
305.000000 -240.000000 65019.000000 56 78 10
306.000000 -240.000000 65019.000000 60 76 1
307.000000 -240.000000 65016.000000 64 80 1
250.000000 -241.000000 65009.000000 39 72 1
251.000000 -241.000000 65009.000000 45 77 1
252.000000 -241.000000 65011.000000 47 73 1
253.000000 -241.000000 65012.000000 49 72 1
254.000000 -241.000000 65012.000000 54 71 1
255.000000 -241.000000 65016.000000 60 70 1
256.000000 -241.000000 65017.000000 61 64 1
257.000000 -241.000000 65017.000000 63 52 1
258.000000 -241.000000 65018.000000 61 16 1
259.000000 -241.000000 65019.000000 60 6 1
260.000000 -241.000000 65020.000000 60 9 1
261.000000 -241.000000 65020.000000 60 14 1
262.000000 -241.000000 65021.000000 56 7 1
263.000000 -241.000000 65023.000000 52 5 1
264.000000 -241.000000 65026.000000 55 4 2
265.000000 -241.000000 65026.000000 59 4 1
266.000000 -241.000000 65027.000000 56 4 1
267.000000 -241.000000 65028.000000 53 9 1
268.000000 -241.000000 65029.000000 49 9 1
269.000000 -241.000000 65029.000000 45 9 1
270.000000 -241.000000 65029.000000 48 6 1
271.000000 -241.000000 65029.000000 51 6 1
272.000000 -241.000000 65029.000000 51 3 1
273.000000 -241.000000 65029.000000 52 4 1
274.000000 -241.000000 65029.000000 54 4 1
275.000000 -241.000000 65028.000000 56 5 1
276.000000 -241.000000 65028.000000 55 6 1
277.000000 -241.000000 65026.000000 55 8 1
278.000000 -241.000000 65026.000000 54 9 1
279.000000 -241.000000 65026.000000 53 10 1
280.000000 -241.000000 65026.000000 51 7 1
281.000000 -241.000000 65026.000000 50 4 1
282.000000 -241.000000 65026.000000 48 5 1
283.000000 -241.000000 65026.000000 46 10 1
284.000000 -241.000000 65025.000000 43 18 1
285.000000 -241.000000 65025.000000 40 30 1
286.000000 -241.000000 65024.000000 32 46 1
287.000000 -241.000000 65024.000000 24 46 1
288.000000 -241.000000 65024.000000 22 45 1
289.000000 -241.000000 65024.000000 20 45 1
290.000000 -241.000000 65024.000000 23 45 1
291.000000 -241.000000 65023.000000 26 46 1
292.000000 -241.000000 65023.000000 24 46 1
293.000000 -241.000000 65023.000000 21 46 1
294.000000 -241.000000 65023.000000 19 44 1
295.000000 -241.000000 65023.000000 18 42 1
296.000000 -241.000000 65023.000000 22 49 1
297.000000 -241.000000 65023.000000 26 53 1
298.000000 -241.000000 65022.000000 23 56 1
299.000000 -241.000000 65022.000000 20 65 1
300.000000 -241.000000 65021.000000 31 69 2
301.000000 -241.000000 65021.000000 41 74 2
302.000000 -241.000000 65019.000000 48 77 2
303.000000 -241.000000 65020.000000 54 80 3
304.000000 -241.000000 65019.000000 56 79 4
305.000000 -241.000000 65019.000000 57 78 2
306.000000 -241.000000 65019.000000 62 77 1
250.000000 -242.000000 65009.000000 42 77 1
251.000000 -242.000000 65009.000000 46 76 1
252.000000 -242.000000 65011.000000 48 74 1
253.000000 -242.000000 65011.000000 50 73 1
254.000000 -242.000000 65016.000000 54 74 1
255.000000 -242.000000 65016.000000 58 70 1
256.000000 -242.000000 65017.000000 60 66 1
257.000000 -242.000000 65017.000000 62 52 1
258.000000 -242.000000 65017.000000 61 22 1
259.000000 -242.000000 65019.000000 60 8 1
260.000000 -242.000000 65019.000000 60 12 1
261.000000 -242.000000 65020.000000 60 14 1
262.000000 -242.000000 65021.000000 54 10 1
263.000000 -242.000000 65023.000000 48 7 1
264.000000 -242.000000 65026.000000 52 5 1
265.000000 -242.000000 65026.000000 57 4 1
266.000000 -242.000000 65026.000000 53 3 1
267.000000 -242.000000 65028.000000 50 6 1
268.000000 -242.000000 65028.000000 44 4 1
269.000000 -242.000000 65029.000000 39 8 4
270.000000 -242.000000 65029.000000 44 7 8
271.000000 -242.000000 65029.000000 49 5 4
272.000000 -242.000000 65029.000000 50 4 1
273.000000 -242.000000 65029.000000 52 4 1
274.000000 -242.000000 65029.000000 53 3 1
275.000000 -242.000000 65028.000000 55 3 1
276.000000 -242.000000 65027.000000 55 2 1
277.000000 -242.000000 65026.000000 55 7 1
278.000000 -242.000000 65026.000000 55 5 1
279.000000 -242.000000 65026.000000 55 6 1
280.000000 -242.000000 65026.000000 54 7 1
281.000000 -242.000000 65026.000000 54 7 1
282.000000 -242.000000 65026.000000 51 8 1
283.000000 -242.000000 65026.000000 48 11 1
284.000000 -242.000000 65025.000000 43 23 1
285.000000 -242.000000 65025.000000 38 37 1
286.000000 -242.000000 65024.000000 30 49 1
287.000000 -242.000000 65025.000000 22 46 1
288.000000 -242.000000 65025.000000 20 43 1
289.000000 -242.000000 65025.000000 19 43 1
290.000000 -242.000000 65024.000000 19 43 1
291.000000 -242.000000 65023.000000 19 43 1
292.000000 -242.000000 65023.000000 19 43 1
293.000000 -242.000000 65023.000000 19 43 1
294.000000 -242.000000 65023.000000 15 44 1
295.000000 -242.000000 65023.000000 12 46 1
296.000000 -242.000000 65023.000000 18 49 1
297.000000 -242.000000 65023.000000 25 53 1
298.000000 -242.000000 65022.000000 17 53 1
299.000000 -242.000000 65022.000000 9 58 1
300.000000 -242.000000 65021.000000 22 63 1
301.000000 -242.000000 65021.000000 36 65 1
302.000000 -242.000000 65020.000000 44 67 1
303.000000 -242.000000 65020.000000 52 78 2
304.000000 -242.000000 65019.000000 55 79 2
305.000000 -242.000000 65019.000000 59 79 6
306.000000 -242.000000 65019.000000 64 79 9
251.000000 -243.000000 65009.000000 54 76 1
252.000000 -243.000000 65009.000000 52 73 1
253.000000 -243.000000 65011.000000 50 72 1
254.000000 -243.000000 65017.000000 54 71 2
255.000000 -243.000000 65017.000000 58 70 1
256.000000 -243.000000 65017.000000 59 65 1
257.000000 -243.000000 65017.000000 60 53 1
258.000000 -243.000000 65017.000000 59 16 1
259.000000 -243.000000 65019.000000 58 10 1
260.000000 -243.000000 65020.000000 58 11 1
261.000000 -243.000000 65020.000000 59 14 1
262.000000 -243.000000 65022.000000 56 13 1
263.000000 -243.000000 65023.000000 54 12 1
264.000000 -243.000000 65025.000000 58 12 1
265.000000 -243.000000 65026.000000 62 12 1
266.000000 -243.000000 65026.000000 57 10 2
267.000000 -243.000000 65027.000000 52 8 1
268.000000 -243.000000 65028.000000 48 8 1
269.000000 -243.000000 65028.000000 44 8 8
270.000000 -243.000000 65028.000000 47 8 16
271.000000 -243.000000 65029.000000 50 4 8
272.000000 -243.000000 65028.000000 54 4 1
273.000000 -243.000000 65029.000000 59 4 1
274.000000 -243.000000 65029.000000 58 4 1
275.000000 -243.000000 65028.000000 57 4 1
276.000000 -243.000000 65027.000000 56 5 1
277.000000 -243.000000 65026.000000 56 7 1
278.000000 -243.000000 65026.000000 56 6 1
279.000000 -243.000000 65026.000000 56 6 1
280.000000 -243.000000 65026.000000 56 7 1
281.000000 -243.000000 65026.000000 56 7 1
282.000000 -243.000000 65026.000000 52 5 1
283.000000 -243.000000 65026.000000 49 13 1
284.000000 -243.000000 65025.000000 44 23 1
285.000000 -243.000000 65025.000000 39 45 1
286.000000 -243.000000 65024.000000 29 53 1
287.000000 -243.000000 65025.000000 19 54 1
288.000000 -243.000000 65025.000000 19 53 1
289.000000 -243.000000 65025.000000 20 53 1
290.000000 -243.000000 65024.000000 19 52 1
291.000000 -243.000000 65023.000000 18 52 1
292.000000 -243.000000 65023.000000 24 53 1
293.000000 -243.000000 65023.000000 30 54 1
294.000000 -243.000000 65023.000000 24 54 1
295.000000 -243.000000 65023.000000 19 54 1
296.000000 -243.000000 65023.000000 26 54 1
297.000000 -243.000000 65023.000000 34 54 1
298.000000 -243.000000 65023.000000 27 54 1
299.000000 -243.000000 65023.000000 19 49 1
300.000000 -243.000000 65022.000000 30 63 1
301.000000 -243.000000 65020.000000 41 67 1
302.000000 -243.000000 65019.000000 47 71 1
303.000000 -243.000000 65020.000000 53 76 1
304.000000 -243.000000 65019.000000 56 80 1
305.000000 -243.000000 65019.000000 60 79 9
306.000000 -243.000000 65019.000000 64 81 18
248.000000 -244.000000 65008.000000 26 18 2
249.000000 -244.000000 65009.000000 38 42 1
250.000000 -244.000000 65009.000000 50 73 1
251.000000 -244.000000 65009.000000 62 73 1
252.000000 -244.000000 65011.000000 56 73 1
253.000000 -244.000000 65011.000000 51 73 3
254.000000 -244.000000 65017.000000 55 77 5
255.000000 -244.000000 65017.000000 59 74 3
256.000000 -244.000000 65017.000000 58 65 1
257.000000 -244.000000 65017.000000 58 56 1
258.000000 -244.000000 65018.000000 57 10 1
259.000000 -244.000000 65019.000000 56 10 1
260.000000 -244.000000 65020.000000 57 10 1
261.000000 -244.000000 65021.000000 59 12 1
262.000000 -244.000000 65022.000000 59 13 1
263.000000 -244.000000 65023.000000 60 12 1
264.000000 -244.000000 65025.000000 64 17 2
265.000000 -244.000000 65026.000000 68 17 10
266.000000 -244.000000 65026.000000 61 17 18
267.000000 -244.000000 65027.000000 54 7 9
268.000000 -244.000000 65027.000000 51 7 1
269.000000 -244.000000 65027.000000 49 8 4
270.000000 -244.000000 65028.000000 50 9 8
271.000000 -244.000000 65028.000000 51 5 4
272.000000 -244.000000 65028.000000 59 5 1
273.000000 -244.000000 65028.000000 67 5 13
274.000000 -244.000000 65028.000000 63 9 26
275.000000 -244.000000 65027.000000 59 10 15
276.000000 -244.000000 65027.000000 58 11 4
277.000000 -244.000000 65026.000000 57 12 2
278.000000 -244.000000 65026.000000 57 13 1
279.000000 -244.000000 65026.000000 58 8 1
280.000000 -244.000000 65026.000000 58 7 1
281.000000 -244.000000 65026.000000 58 5 1
282.000000 -244.000000 65026.000000 54 3 1
283.000000 -244.000000 65026.000000 50 10 1
284.000000 -244.000000 65025.000000 45 23 1
285.000000 -244.000000 65025.000000 40 43 1
286.000000 -244.000000 65024.000000 28 57 1
287.000000 -244.000000 65025.000000 16 55 1
288.000000 -244.000000 65026.000000 18 56 1
289.000000 -244.000000 65025.000000 21 52 1
290.000000 -244.000000 65024.000000 19 58 1
291.000000 -244.000000 65023.000000 17 55 1
292.000000 -244.000000 65023.000000 29 56 1
293.000000 -244.000000 65023.000000 42 57 1
294.000000 -244.000000 65023.000000 34 59 1
295.000000 -244.000000 65023.000000 26 56 6
296.000000 -244.000000 65023.000000 35 53 11
297.000000 -244.000000 65023.000000 44 54 6
298.000000 -244.000000 65023.000000 37 55 1
299.000000 -244.000000 65023.000000 30 59 1
300.000000 -244.000000 65022.000000 38 64 1
301.000000 -244.000000 65020.000000 47 71 1
302.000000 -244.000000 65020.000000 50 77 1
303.000000 -244.000000 65020.000000 54 77 1
304.000000 -244.000000 65019.000000 57 81 1
305.000000 -244.000000 65019.000000 61 82 5
306.000000 -244.000000 65019.000000 65 83 9
247.000000 -245.000000 65008.000000 10 4 1
248.000000 -245.000000 65008.000000 25 19 1
249.000000 -245.000000 65009.000000 40 41 1
250.000000 -245.000000 65009.000000 48 75 2
251.000000 -245.000000 65009.000000 56 77 1
252.000000 -245.000000 65009.000000 49 74 1
253.000000 -245.000000 65017.000000 41 75 5
254.000000 -245.000000 65017.000000 50 76 9
255.000000 -245.000000 65017.000000 58 78 5
256.000000 -245.000000 65017.000000 58 66 1
257.000000 -245.000000 65017.000000 58 60 1
258.000000 -245.000000 65018.000000 57 11 1
259.000000 -245.000000 65019.000000 57 4 1
260.000000 -245.000000 65020.000000 60 7 1
261.000000 -245.000000 65022.000000 64 11 1
262.000000 -245.000000 65023.000000 61 11 1
263.000000 -245.000000 65023.000000 57 12 2
264.000000 -245.000000 65025.000000 59 11 4
265.000000 -245.000000 65026.000000 61 11 19
266.000000 -245.000000 65026.000000 57 8 34
267.000000 -245.000000 65027.000000 53 6 17
268.000000 -245.000000 65027.000000 52 4 1
269.000000 -245.000000 65027.000000 52 3 1
270.000000 -245.000000 65028.000000 50 4 1
271.000000 -245.000000 65028.000000 48 6 1
272.000000 -245.000000 65028.000000 53 6 1
273.000000 -245.000000 65028.000000 59 6 26
274.000000 -245.000000 65028.000000 58 10 51
275.000000 -245.000000 65027.000000 57 10 29
276.000000 -245.000000 65027.000000 56 10 7
277.000000 -245.000000 65027.000000 55 10 4
278.000000 -245.000000 65026.000000 56 10 2
279.000000 -245.000000 65026.000000 58 10 1
280.000000 -245.000000 65026.000000 60 5 1
281.000000 -245.000000 65026.000000 63 4 1
282.000000 -245.000000 65026.000000 56 2 1
283.000000 -245.000000 65026.000000 49 8 1
284.000000 -245.000000 65026.000000 44 18 1
285.000000 -245.000000 65025.000000 39 41 1
286.000000 -245.000000 65025.000000 29 51 1
287.000000 -245.000000 65026.000000 19 55 1
288.000000 -245.000000 65026.000000 23 53 1
289.000000 -245.000000 65026.000000 26 52 1
290.000000 -245.000000 65026.000000 22 53 1
291.000000 -245.000000 65024.000000 18 54 1
292.000000 -245.000000 65024.000000 26 50 1
293.000000 -245.000000 65024.000000 34 47 1
294.000000 -245.000000 65024.000000 28 46 1
295.000000 -245.000000 65023.000000 22 46 11
296.000000 -245.000000 65023.000000 25 48 21
297.000000 -245.000000 65023.000000 28 50 11
298.000000 -245.000000 65023.000000 28 52 1
299.000000 -245.000000 65023.000000 29 59 1
300.000000 -245.000000 65022.000000 36 64 1
301.000000 -245.000000 65022.000000 43 75 1
302.000000 -245.000000 65021.000000 48 76 1
303.000000 -245.000000 65021.000000 52 78 1
304.000000 -245.000000 65020.000000 56 80 1
305.000000 -245.000000 65020.000000 60 82 1
306.000000 -245.000000 65019.000000 64 84 1
247.000000 -246.000000 65008.000000 7 2 1
248.000000 -246.000000 65009.000000 24 21 1
249.000000 -246.000000 65009.000000 42 57 6
250.000000 -246.000000 65009.000000 46 78 12
251.000000 -246.000000 65009.000000 51 74 6
252.000000 -246.000000 65009.000000 41 71 1
253.000000 -246.000000 65010.000000 32 72 3
254.000000 -246.000000 65017.000000 45 74 5
255.000000 -246.000000 65017.000000 58 70 3
256.000000 -246.000000 65017.000000 58 67 1
257.000000 -246.000000 65017.000000 59 58 1
258.000000 -246.000000 65020.000000 58 13 2
259.000000 -246.000000 65021.000000 58 4 1
260.000000 -246.000000 65021.000000 64 5 1
261.000000 -246.000000 65022.000000 70 5 1
262.000000 -246.000000 65023.000000 62 5 1
263.000000 -246.000000 65023.000000 55 4 2
264.000000 -246.000000 65024.000000 55 3 3
265.000000 -246.000000 65026.000000 55 3 10
266.000000 -246.000000 65026.000000 53 4 17
267.000000 -246.000000 65027.000000 52 3 9
268.000000 -246.000000 65028.000000 53 2 1
269.000000 -246.000000 65028.000000 55 3 1
270.000000 -246.000000 65028.000000 50 3 1
271.000000 -246.000000 65029.000000 45 3 1
272.000000 -246.000000 65028.000000 48 3 1
273.000000 -246.000000 65029.000000 52 5 13
274.000000 -246.000000 65029.000000 53 12 26
275.000000 -246.000000 65028.000000 55 7 15
276.000000 -246.000000 65027.000000 54 3 4
277.000000 -246.000000 65027.000000 54 4 2
278.000000 -246.000000 65027.000000 56 6 1
279.000000 -246.000000 65026.000000 58 4 1
280.000000 -246.000000 65026.000000 63 3 1
281.000000 -246.000000 65026.000000 69 3 1
282.000000 -246.000000 65026.000000 59 1 1
283.000000 -246.000000 65026.000000 49 8 1
284.000000 -246.000000 65025.000000 43 14 1
285.000000 -246.000000 65025.000000 38 39 2
286.000000 -246.000000 65025.000000 30 45 3
287.000000 -246.000000 65026.000000 23 55 2
288.000000 -246.000000 65026.000000 27 47 1
289.000000 -246.000000 65026.000000 32 52 1
290.000000 -246.000000 65025.000000 26 50 1
291.000000 -246.000000 65024.000000 20 53 1
292.000000 -246.000000 65024.000000 23 44 1
293.000000 -246.000000 65024.000000 27 48 1
294.000000 -246.000000 65024.000000 22 39 1
295.000000 -246.000000 65023.000000 18 49 6
296.000000 -246.000000 65023.000000 15 46 11
297.000000 -246.000000 65023.000000 12 47 6
298.000000 -246.000000 65023.000000 20 49 1
299.000000 -246.000000 65023.000000 28 59 1
300.000000 -246.000000 65023.000000 34 64 1
301.000000 -246.000000 65022.000000 40 71 1
302.000000 -246.000000 65021.000000 45 76 1
303.000000 -246.000000 65021.000000 51 77 1
304.000000 -246.000000 65021.000000 55 79 1
305.000000 -246.000000 65020.000000 59 84 2
306.000000 -246.000000 65020.000000 64 85 3
247.000000 -247.000000 65008.000000 9 1 1
248.000000 -247.000000 65008.000000 26 35 1
249.000000 -247.000000 65009.000000 44 73 12
250.000000 -247.000000 65009.000000 49 72 23
251.000000 -247.000000 65009.000000 54 72 12
252.000000 -247.000000 65013.000000 48 69 1
253.000000 -247.000000 65013.000000 41 67 1
254.000000 -247.000000 65016.000000 53 67 1
255.000000 -247.000000 65016.000000 66 68 1
256.000000 -247.000000 65017.000000 63 64 1
257.000000 -247.000000 65017.000000 60 56 2
258.000000 -247.000000 65020.000000 57 16 3
259.000000 -247.000000 65021.000000 54 5 2
260.000000 -247.000000 65020.000000 59 6 1
261.000000 -247.000000 65023.000000 64 8 1
262.000000 -247.000000 65023.000000 61 8 1
263.000000 -247.000000 65024.000000 57 8 1
264.000000 -247.000000 65024.000000 58 5 2
265.000000 -247.000000 65026.000000 59 3 1
266.000000 -247.000000 65027.000000 55 3 1
267.000000 -247.000000 65028.000000 52 3 1
268.000000 -247.000000 65028.000000 51 3 1
269.000000 -247.000000 65029.000000 51 3 1
270.000000 -247.000000 65029.000000 48 2 1
271.000000 -247.000000 65029.000000 45 2 1
272.000000 -247.000000 65028.000000 49 3 1
273.000000 -247.000000 65029.000000 52 5 1
274.000000 -247.000000 65028.000000 57 12 1
275.000000 -247.000000 65027.000000 61 4 1
276.000000 -247.000000 65027.000000 58 4 1
277.000000 -247.000000 65027.000000 54 4 1
278.000000 -247.000000 65027.000000 56 3 1
279.000000 -247.000000 65026.000000 58 3 1
280.000000 -247.000000 65026.000000 61 3 1
281.000000 -247.000000 65026.000000 64 3 1
282.000000 -247.000000 65026.000000 58 5 1
283.000000 -247.000000 65026.000000 51 8 1
284.000000 -247.000000 65025.000000 45 17 1
285.000000 -247.000000 65025.000000 39 37 3
286.000000 -247.000000 65025.000000 32 45 6
287.000000 -247.000000 65026.000000 26 56 3
288.000000 -247.000000 65026.000000 24 54 1
289.000000 -247.000000 65025.000000 23 52 1
290.000000 -247.000000 65025.000000 21 52 1
291.000000 -247.000000 65024.000000 19 52 1
292.000000 -247.000000 65024.000000 25 51 1
293.000000 -247.000000 65024.000000 30 50 1
294.000000 -247.000000 65024.000000 31 51 1
295.000000 -247.000000 65023.000000 32 52 1
296.000000 -247.000000 65023.000000 28 53 1
297.000000 -247.000000 65023.000000 23 55 1
298.000000 -247.000000 65023.000000 28 57 1
299.000000 -247.000000 65023.000000 32 59 1
300.000000 -247.000000 65023.000000 38 65 1
301.000000 -247.000000 65021.000000 43 68 1
302.000000 -247.000000 65021.000000 49 82 1
303.000000 -247.000000 65021.000000 54 85 1
304.000000 -247.000000 65021.000000 57 85 1
305.000000 -247.000000 65020.000000 60 86 3
306.000000 -247.000000 65020.000000 65 87 5
248.000000 -248.000000 65008.000000 29 50 1
249.000000 -248.000000 65009.000000 46 67 6
250.000000 -248.000000 65009.000000 52 85 12
251.000000 -248.000000 65009.000000 58 71 6
252.000000 -248.000000 65013.000000 54 65 1
253.000000 -248.000000 65013.000000 51 70 7
254.000000 -248.000000 65015.000000 62 72 13
