ply
    format ascii 1.0
    element vertex 10935
    property float x
    property float y
    property float z
    property uchar red
    property uchar green
    property uchar blue
    end_header
269.000000 -238.000000 65030.000000 23 40 5
270.000000 -238.000000 65031.000000 22 48 9
271.000000 -238.000000 65031.000000 21 45 5
272.000000 -238.000000 65032.000000 15 43 1
273.000000 -238.000000 65032.000000 10 37 1
274.000000 -238.000000 65032.000000 8 11 1
275.000000 -238.000000 65032.000000 6 24 1
276.000000 -238.000000 65032.000000 11 37 1
277.000000 -238.000000 65032.000000 17 44 1
278.000000 -238.000000 65032.000000 23 50 1
279.000000 -238.000000 65032.000000 30 54 1
280.000000 -238.000000 65032.000000 30 57 1
281.000000 -238.000000 65032.000000 31 56 1
282.000000 -238.000000 65032.000000 30 55 1
283.000000 -238.000000 65032.000000 30 55 3
284.000000 -238.000000 65031.000000 37 47 5
285.000000 -238.000000 65030.000000 44 39 3
286.000000 -238.000000 65030.000000 53 27 1
287.000000 -238.000000 65030.000000 63 24 1
288.000000 -238.000000 65029.000000 72 22 1
289.000000 -238.000000 65029.000000 82 21 1
290.000000 -238.000000 65028.000000 70 12 1
291.000000 -238.000000 65028.000000 58 27 1
292.000000 -238.000000 65028.000000 52 46 1
293.000000 -238.000000 65027.000000 46 64 1
294.000000 -238.000000 65026.000000 46 73 1
295.000000 -238.000000 65026.000000 47 76 1
296.000000 -238.000000 65026.000000 51 78 1
297.000000 -238.000000 65023.000000 55 81 1
298.000000 -238.000000 65023.000000 57 84 1
299.000000 -238.000000 65022.000000 60 85 5
300.000000 -238.000000 65021.000000 65 86 10
301.000000 -238.000000 65021.000000 71 85 9
302.000000 -238.000000 65020.000000 70 85 8
303.000000 -238.000000 65020.000000 69 86 4
304.000000 -238.000000 65019.000000 63 87 1
305.000000 -238.000000 65018.000000 58 87 1
306.000000 -238.000000 65017.000000 62 88 1
307.000000 -238.000000 65017.000000 66 89 10
308.000000 -238.000000 65016.000000 68 91 19
309.000000 -238.000000 65015.000000 71 93 10
310.000000 -238.000000 65015.000000 63 88 1
311.000000 -238.000000 65015.000000 56 66 12
248.000000 -239.000000 65018.000000 22 35 2
249.000000 -239.000000 65018.000000 40 54 2
250.000000 -239.000000 65019.000000 49 83 3
251.000000 -239.000000 65020.000000 59 73 2
252.000000 -239.000000 65020.000000 55 70 1
253.000000 -239.000000 65020.000000 52 66 1
254.000000 -239.000000 65023.000000 43 61 1
255.000000 -239.000000 65024.000000 35 61 1
256.000000 -239.000000 65025.000000 41 55 1
257.000000 -239.000000 65025.000000 48 53 1
258.000000 -239.000000 65026.000000 41 48 1
259.000000 -239.000000 65026.000000 35 44 1
260.000000 -239.000000 65026.000000 30 43 1
261.000000 -239.000000 65027.000000 25 43 1
262.000000 -239.000000 65028.000000 23 43 1
263.000000 -239.000000 65029.000000 21 43 17
264.000000 -239.000000 65029.000000 17 42 34
265.000000 -239.000000 65029.000000 13 41 19
266.000000 -239.000000 65029.000000 10 9 5
267.000000 -239.000000 65029.000000 7 15 3
268.000000 -239.000000 65030.000000 14 28 2
269.000000 -239.000000 65031.000000 22 44 2
270.000000 -239.000000 65031.000000 20 42 2
271.000000 -239.000000 65031.000000 18 40 1
272.000000 -239.000000 65032.000000 13 33 1
273.000000 -239.000000 65032.000000 8 26 1
274.000000 -239.000000 65032.000000 6 8 2
275.000000 -239.000000 65032.000000 3 17 2
276.000000 -239.000000 65032.000000 11 28 2
277.000000 -239.000000 65032.000000 18 39 1
278.000000 -239.000000 65032.000000 25 52 1
279.000000 -239.000000 65032.000000 31 59 1
280.000000 -239.000000 65032.000000 31 57 1
281.000000 -239.000000 65032.000000 30 58 1
282.000000 -239.000000 65032.000000 29 57 1
283.000000 -239.000000 65032.000000 27 56 1
284.000000 -239.000000 65032.000000 36 49 1
285.000000 -239.000000 65032.000000 45 40 1
286.000000 -239.000000 65031.000000 55 21 1
287.000000 -239.000000 65030.000000 65 12 1
288.000000 -239.000000 65029.000000 71 20 2
289.000000 -239.000000 65029.000000 78 22 1
290.000000 -239.000000 65028.000000 67 12 1
291.000000 -239.000000 65027.000000 57 29 1
292.000000 -239.000000 65027.000000 50 45 1
293.000000 -239.000000 65027.000000 42 68 1
294.000000 -239.000000 65026.000000 46 73 1
295.000000 -239.000000 65026.000000 51 79 1
296.000000 -239.000000 65026.000000 54 78 1
297.000000 -239.000000 65024.000000 57 82 1
298.000000 -239.000000 65023.000000 57 79 1
299.000000 -239.000000 65023.000000 58 76 10
300.000000 -239.000000 65022.000000 65 78 19
301.000000 -239.000000 65021.000000 72 80 17
302.000000 -239.000000 65020.000000 72 81 15
303.000000 -239.000000 65020.000000 73 83 8
304.000000 -239.000000 65019.000000 68 84 1
305.000000 -239.000000 65018.000000 64 86 1
306.000000 -239.000000 65017.000000 66 86 1
307.000000 -239.000000 65017.000000 68 86 1
308.000000 -239.000000 65015.000000 72 90 1
309.000000 -239.000000 65015.000000 76 93 1
310.000000 -239.000000 65015.000000 65 80 1
311.000000 -239.000000 65015.000000 54 54 11
248.000000 -240.000000 65017.000000 22 38 1
249.000000 -240.000000 65018.000000 40 52 13
250.000000 -240.000000 65019.000000 48 78 26
251.000000 -240.000000 65020.000000 57 75 14
252.000000 -240.000000 65020.000000 55 67 2
253.000000 -240.000000 65020.000000 53 63 1
254.000000 -240.000000 65023.000000 48 60 1
255.000000 -240.000000 65024.000000 44 57 1
256.000000 -240.000000 65025.000000 44 55 1
257.000000 -240.000000 65025.000000 45 51 1
258.000000 -240.000000 65025.000000 43 51 1
259.000000 -240.000000 65026.000000 41 51 1
260.000000 -240.000000 65026.000000 34 51 1
261.000000 -240.000000 65027.000000 27 42 1
262.000000 -240.000000 65028.000000 24 37 1
263.000000 -240.000000 65029.000000 21 39 9
264.000000 -240.000000 65029.000000 16 27 17
265.000000 -240.000000 65029.000000 12 20 10
266.000000 -240.000000 65029.000000 7 14 3
267.000000 -240.000000 65029.000000 3 16 2
268.000000 -240.000000 65030.000000 12 27 1
269.000000 -240.000000 65030.000000 21 31 1
270.000000 -240.000000 65030.000000 18 36 1
271.000000 -240.000000 65031.000000 16 36 1
272.000000 -240.000000 65032.000000 11 23 1
273.000000 -240.000000 65032.000000 7 19 1
274.000000 -240.000000 65032.000000 4 6 1
275.000000 -240.000000 65032.000000 1 10 1
276.000000 -240.000000 65032.000000 10 14 1
277.000000 -240.000000 65032.000000 20 34 1
278.000000 -240.000000 65032.000000 26 55 1
279.000000 -240.000000 65032.000000 33 58 1
280.000000 -240.000000 65032.000000 31 57 1
281.000000 -240.000000 65032.000000 30 57 1
282.000000 -240.000000 65032.000000 27 60 1
283.000000 -240.000000 65032.000000 25 55 1
284.000000 -240.000000 65032.000000 35 51 1
285.000000 -240.000000 65032.000000 46 40 1
286.000000 -240.000000 65031.000000 56 16 1
287.000000 -240.000000 65031.000000 67 12 8
288.000000 -240.000000 65029.000000 70 18 15
289.000000 -240.000000 65028.000000 74 22 8
290.000000 -240.000000 65026.000000 65 12 1
291.000000 -240.000000 65026.000000 57 27 1
292.000000 -240.000000 65026.000000 48 44 1
293.000000 -240.000000 65026.000000 39 63 1
294.000000 -240.000000 65025.000000 47 85 1
295.000000 -240.000000 65026.000000 55 76 8
296.000000 -240.000000 65026.000000 57 79 15
297.000000 -240.000000 65025.000000 59 79 11
298.000000 -240.000000 65023.000000 57 68 7
299.000000 -240.000000 65023.000000 56 72 10
300.000000 -240.000000 65022.000000 65 77 13
301.000000 -240.000000 65021.000000 74 78 20
302.000000 -240.000000 65020.000000 75 79 27
303.000000 -240.000000 65020.000000 77 82 14
304.000000 -240.000000 65019.000000 74 83 1
305.000000 -240.000000 65018.000000 71 85 2
306.000000 -240.000000 65017.000000 71 86 4
307.000000 -240.000000 65016.000000 71 87 2
308.000000 -240.000000 65015.000000 76 90 1
309.000000 -240.000000 65014.000000 81 95 2
310.000000 -240.000000 65014.000000 67 73 4
311.000000 -240.000000 65014.000000 53 54 9
248.000000 -241.000000 65017.000000 22 36 1
249.000000 -241.000000 65017.000000 40 50 25
250.000000 -241.000000 65019.000000 53 84 49
251.000000 -241.000000 65019.000000 66 77 26
252.000000 -241.000000 65020.000000 59 64 3
253.000000 -241.000000 65020.000000 51 59 2
254.000000 -241.000000 65023.000000 44 57 1
255.000000 -241.000000 65024.000000 36 55 1
256.000000 -241.000000 65024.000000 40 55 1
257.000000 -241.000000 65025.000000 43 50 1
258.000000 -241.000000 65025.000000 39 52 2
259.000000 -241.000000 65026.000000 36 54 1
260.000000 -241.000000 65026.000000 26 49 1
261.000000 -241.000000 65027.000000 16 42 1
262.000000 -241.000000 65028.000000 21 39 1
263.000000 -241.000000 65029.000000 25 36 1
264.000000 -241.000000 65028.000000 21 30 1
265.000000 -241.000000 65029.000000 17 25 1
266.000000 -241.000000 65029.000000 13 15 1
267.000000 -241.000000 65029.000000 9 17 1
268.000000 -241.000000 65030.000000 16 28 1
269.000000 -241.000000 65030.000000 24 30 1
270.000000 -241.000000 65030.000000 22 33 1
271.000000 -241.000000 65031.000000 19 32 1
272.000000 -241.000000 65032.000000 14 25 1
273.000000 -241.000000 65032.000000 9 13 1
274.000000 -241.000000 65032.000000 8 6 1
275.000000 -241.000000 65032.000000 7 1 1
276.000000 -241.000000 65032.000000 15 20 1
277.000000 -241.000000 65032.000000 23 29 1
278.000000 -241.000000 65032.000000 30 53 2
279.000000 -241.000000 65032.000000 37 58 1
280.000000 -241.000000 65032.000000 34 56 1
281.000000 -241.000000 65032.000000 31 55 1
282.000000 -241.000000 65032.000000 30 55 1
283.000000 -241.000000 65032.000000 30 55 1
284.000000 -241.000000 65033.000000 39 50 1
285.000000 -241.000000 65032.000000 48 41 1
286.000000 -241.000000 65032.000000 62 21 1
287.000000 -241.000000 65032.000000 75 13 14
288.000000 -241.000000 65032.000000 75 18 28
289.000000 -241.000000 65027.000000 75 23 14
290.000000 -241.000000 65026.000000 68 24 1
291.000000 -241.000000 65026.000000 62 25 1
292.000000 -241.000000 65026.000000 53 44 1
293.000000 -241.000000 65026.000000 45 58 1
294.000000 -241.000000 65025.000000 50 66 1
295.000000 -241.000000 65026.000000 54 74 15
296.000000 -241.000000 65026.000000 58 79 30
297.000000 -241.000000 65025.000000 61 77 22
298.000000 -241.000000 65023.000000 52 66 14
299.000000 -241.000000 65023.000000 43 48 10
300.000000 -241.000000 65022.000000 57 78 7
301.000000 -241.000000 65021.000000 71 84 23
302.000000 -241.000000 65020.000000 74 83 40
303.000000 -241.000000 65020.000000 77 82 20
304.000000 -241.000000 65019.000000 73 83 1
305.000000 -241.000000 65018.000000 69 84 4
306.000000 -241.000000 65017.000000 68 87 8
307.000000 -241.000000 65016.000000 67 89 4
308.000000 -241.000000 65014.000000 72 93 1
309.000000 -241.000000 65013.000000 78 97 4
310.000000 -241.000000 65013.000000 65 70 7
311.000000 -241.000000 65013.000000 52 55 7
249.000000 -242.000000 65017.000000 41 47 17
250.000000 -242.000000 65019.000000 58 90 26
251.000000 -242.000000 65020.000000 76 76 17
252.000000 -242.000000 65020.000000 63 62 8
253.000000 -242.000000 65022.000000 50 56 4
254.000000 -242.000000 65023.000000 39 56 1
255.000000 -242.000000 65024.000000 29 55 1
256.000000 -242.000000 65025.000000 35 55 1
257.000000 -242.000000 65025.000000 42 52 1
258.000000 -242.000000 65025.000000 36 54 1
264.000000 -242.000000 65028.000000 26 44 1
265.000000 -242.000000 65028.000000 23 37 1
266.000000 -242.000000 65029.000000 19 17 1
267.000000 -242.000000 65029.000000 15 21 1
268.000000 -242.000000 65030.000000 21 29 1
269.000000 -242.000000 65030.000000 28 31 1
270.000000 -242.000000 65030.000000 25 34 1
271.000000 -242.000000 65031.000000 23 32 1
272.000000 -242.000000 65032.000000 17 27 1
273.000000 -242.000000 65032.000000 12 22 1
274.000000 -242.000000 65032.000000 13 6 1
275.000000 -242.000000 65032.000000 14 16 1
276.000000 -242.000000 65032.000000 20 27 1
277.000000 -242.000000 65032.000000 26 37 1
278.000000 -242.000000 65032.000000 33 51 1
279.000000 -242.000000 65032.000000 41 51 1
280.000000 -242.000000 65032.000000 36 51 1
281.000000 -242.000000 65032.000000 32 55 1
282.000000 -242.000000 65032.000000 33 55 1
283.000000 -242.000000 65032.000000 35 52 2
284.000000 -242.000000 65032.000000 43 50 4
285.000000 -242.000000 65032.000000 51 39 2
286.000000 -242.000000 65032.000000 67 26 1
287.000000 -242.000000 65032.000000 84 15 7
288.000000 -242.000000 65032.000000 80 34 14
289.000000 -242.000000 65026.000000 77 30 7
290.000000 -242.000000 65026.000000 72 26 1
291.000000 -242.000000 65026.000000 67 27 1
292.000000 -242.000000 65026.000000 59 44 1
293.000000 -242.000000 65026.000000 52 61 1
294.000000 -242.000000 65025.000000 53 64 1
295.000000 -242.000000 65025.000000 54 81 8
296.000000 -242.000000 65025.000000 59 79 16
297.000000 -242.000000 65024.000000 64 76 12
298.000000 -242.000000 65023.000000 47 65 9
299.000000 -242.000000 65023.000000 30 54 6
300.000000 -242.000000 65022.000000 49 79 4
301.000000 -242.000000 65021.000000 68 81 16
302.000000 -242.000000 65019.000000 73 83 28
303.000000 -242.000000 65020.000000 78 82 14
304.000000 -242.000000 65019.000000 73 85 1
305.000000 -242.000000 65018.000000 68 85 2
306.000000 -242.000000 65017.000000 65 89 4
307.000000 -242.000000 65016.000000 63 91 3
308.000000 -242.000000 65014.000000 69 99 2
309.000000 -242.000000 65013.000000 76 98 3
310.000000 -242.000000 65013.000000 63 67 5
311.000000 -242.000000 65013.000000 51 54 7
250.000000 -243.000000 65019.000000 52 83 4
251.000000 -243.000000 65020.000000 67 75 9
252.000000 -243.000000 65022.000000 58 62 14
253.000000 -243.000000 65022.000000 49 54 7
254.000000 -243.000000 65023.000000 43 55 1
255.000000 -243.000000 65023.000000 37 56 1
256.000000 -243.000000 65024.000000 41 54 1
257.000000 -243.000000 65024.000000 46 49 1
258.000000 -243.000000 65025.000000 38 47 1
263.000000 -243.000000 65029.000000 35 53 1
264.000000 -243.000000 65029.000000 31 51 2
265.000000 -243.000000 65029.000000 28 49 1
266.000000 -243.000000 65029.000000 20 19 1
267.000000 -243.000000 65029.000000 12 25 1
268.000000 -243.000000 65031.000000 20 33 1
269.000000 -243.000000 65031.000000 28 39 1
270.000000 -243.000000 65031.000000 26 35 1
271.000000 -243.000000 65032.000000 25 32 1
272.000000 -243.000000 65032.000000 21 32 1
273.000000 -243.000000 65032.000000 18 32 1
274.000000 -243.000000 65032.000000 20 34 1
275.000000 -243.000000 65032.000000 22 36 1
276.000000 -243.000000 65032.000000 22 40 1
277.000000 -243.000000 65032.000000 23 45 1
278.000000 -243.000000 65032.000000 29 52 1
279.000000 -243.000000 65032.000000 36 54 1
280.000000 -243.000000 65032.000000 34 53 1
281.000000 -243.000000 65032.000000 33 56 1
282.000000 -243.000000 65032.000000 35 56 1
283.000000 -243.000000 65032.000000 38 62 4
284.000000 -243.000000 65032.000000 45 52 8
285.000000 -243.000000 65032.000000 52 38 4
286.000000 -243.000000 65032.000000 64 18 1
287.000000 -243.000000 65032.000000 77 17 1
288.000000 -243.000000 65032.000000 77 15 1
289.000000 -243.000000 65025.000000 76 14 1
290.000000 -243.000000 65025.000000 70 20 1
291.000000 -243.000000 65025.000000 63 29 1
292.000000 -243.000000 65025.000000 55 44 1
293.000000 -243.000000 65025.000000 47 64 1
294.000000 -243.000000 65025.000000 51 74 2
295.000000 -243.000000 65025.000000 55 88 2
296.000000 -243.000000 65025.000000 57 80 2
297.000000 -243.000000 65024.000000 59 76 3
298.000000 -243.000000 65024.000000 50 68 4
299.000000 -243.000000 65023.000000 41 60 3
300.000000 -243.000000 65021.000000 54 71 2
301.000000 -243.000000 65020.000000 68 78 9
302.000000 -243.000000 65019.000000 72 80 17
303.000000 -243.000000 65019.000000 77 83 9
304.000000 -243.000000 65018.000000 74 84 1
305.000000 -243.000000 65018.000000 71 86 1
306.000000 -243.000000 65016.000000 69 87 1
307.000000 -243.000000 65016.000000 67 93 2
308.000000 -243.000000 65014.000000 71 97 3
309.000000 -243.000000 65013.000000 75 100 3
310.000000 -243.000000 65013.000000 65 70 4
252.000000 -244.000000 65020.000000 54 63 7
253.000000 -244.000000 65022.000000 49 61 4
254.000000 -244.000000 65023.000000 47 60 1
255.000000 -244.000000 65023.000000 45 56 1
256.000000 -244.000000 65024.000000 48 53 1
257.000000 -244.000000 65024.000000 51 49 1
258.000000 -244.000000 65024.000000 40 46 1
263.000000 -244.000000 65029.000000 40 54 1
264.000000 -244.000000 65029.000000 37 53 1
265.000000 -244.000000 65029.000000 34 46 6
266.000000 -244.000000 65029.000000 21 22 10
267.000000 -244.000000 65029.000000 9 27 5
268.000000 -244.000000 65029.000000 18 37 1
269.000000 -244.000000 65030.000000 28 40 1
270.000000 -244.000000 65031.000000 27 44 1
271.000000 -244.000000 65032.000000 27 41 1
272.000000 -244.000000 65032.000000 25 39 1
273.000000 -244.000000 65032.000000 24 42 1
274.000000 -244.000000 65033.000000 27 45 1
275.000000 -244.000000 65032.000000 30 43 4
276.000000 -244.000000 65032.000000 25 42 8
277.000000 -244.000000 65032.000000 21 48 4
278.000000 -244.000000 65032.000000 26 53 1
279.000000 -244.000000 65032.000000 31 53 1
280.000000 -244.000000 65032.000000 32 53 1
281.000000 -244.000000 65032.000000 34 56 1
282.000000 -244.000000 65032.000000 38 58 1
283.000000 -244.000000 65033.000000 42 61 2
284.000000 -244.000000 65032.000000 47 54 4
285.000000 -244.000000 65032.000000 53 35 3
286.000000 -244.000000 65032.000000 62 11 1
287.000000 -244.000000 65032.000000 71 8 1
288.000000 -244.000000 65032.000000 73 6 1
289.000000 -244.000000 65026.000000 76 10 1
290.000000 -244.000000 65026.000000 68 14 1
291.000000 -244.000000 65025.000000 60 29 1
292.000000 -244.000000 65025.000000 51 45 1
293.000000 -244.000000 65025.000000 42 66 1
294.000000 -244.000000 65025.000000 49 85 1
295.000000 -244.000000 65025.000000 56 83 1
296.000000 -244.000000 65025.000000 55 82 1
297.000000 -244.000000 65024.000000 55 74 2
298.000000 -244.000000 65024.000000 54 41 2
299.000000 -244.000000 65023.000000 53 57 6
300.000000 -244.000000 65021.000000 60 64 10
301.000000 -244.000000 65020.000000 68 66 13
302.000000 -244.000000 65019.000000 72 69 17
303.000000 -244.000000 65019.000000 76 82 9
304.000000 -244.000000 65018.000000 75 82 1
305.000000 -244.000000 65018.000000 74 84 1
306.000000 -244.000000 65018.000000 72 86 1
307.000000 -244.000000 65016.000000 71 91 9
308.000000 -244.000000 65014.000000 73 96 17
309.000000 -244.000000 65013.000000 75 97 13
310.000000 -244.000000 65013.000000 66 73 9
252.000000 -245.000000 65021.000000 49 63 1
253.000000 -245.000000 65023.000000 39 64 1
254.000000 -245.000000 65023.000000 41 60 1
255.000000 -245.000000 65023.000000 42 56 1
256.000000 -245.000000 65023.000000 44 54 1
257.000000 -245.000000 65023.000000 46 50 1
258.000000 -245.000000 65026.000000 38 42 1
259.000000 -245.000000 65026.000000 30 38 1
264.000000 -245.000000 65029.000000 33 51 1
265.000000 -245.000000 65029.000000 30 44 10
266.000000 -245.000000 65029.000000 24 24 20
267.000000 -245.000000 65029.000000 17 30 10
268.000000 -245.000000 65029.000000 23 40 1
269.000000 -245.000000 65029.000000 29 51 1
270.000000 -245.000000 65030.000000 29 50 1
271.000000 -245.000000 65031.000000 28 49 1
272.000000 -245.000000 65032.000000 26 42 1
273.000000 -245.000000 65032.000000 24 40 1
274.000000 -245.000000 65032.000000 30 46 1
275.000000 -245.000000 65033.000000 37 48 8
276.000000 -245.000000 65033.000000 30 49 16
277.000000 -245.000000 65033.000000 22 51 8
278.000000 -245.000000 65033.000000 25 52 1
279.000000 -245.000000 65033.000000 27 53 1
280.000000 -245.000000 65033.000000 33 54 1
281.000000 -245.000000 65033.000000 39 57 1
282.000000 -245.000000 65033.000000 40 58 1
283.000000 -245.000000 65033.000000 42 60 1
284.000000 -245.000000 65033.000000 47 52 1
285.000000 -245.000000 65032.000000 53 33 1
286.000000 -245.000000 65032.000000 61 15 2
287.000000 -245.000000 65032.000000 69 4 2
288.000000 -245.000000 65032.000000 71 5 2
289.000000 -245.000000 65032.000000 73 5 1
290.000000 -245.000000 65026.000000 66 10 1
291.000000 -245.000000 65026.000000 58 30 1
292.000000 -245.000000 65026.000000 52 46 1
293.000000 -245.000000 65026.000000 45 69 1
294.000000 -245.000000 65025.000000 51 79 1
295.000000 -245.000000 65025.000000 57 82 1
296.000000 -245.000000 65025.000000 60 85 1
297.000000 -245.000000 65025.000000 64 72 1
298.000000 -245.000000 65024.000000 65 63 1
299.000000 -245.000000 65023.000000 67 55 9
300.000000 -245.000000 65022.000000 71 57 18
301.000000 -245.000000 65020.000000 75 59 17
302.000000 -245.000000 65020.000000 77 80 17
303.000000 -245.000000 65019.000000 79 82 9
304.000000 -245.000000 65019.000000 77 82 1
305.000000 -245.000000 65018.000000 75 83 1
306.000000 -245.000000 65017.000000 73 86 2
307.000000 -245.000000 65017.000000 71 89 17
308.000000 -245.000000 65017.000000 74 95 32
309.000000 -245.000000 65017.000000 78 95 23
310.000000 -245.000000 65013.000000 67 70 14
252.000000 -246.000000 65021.000000 44 64 1
253.000000 -246.000000 65022.000000 30 62 1
254.000000 -246.000000 65023.000000 35 61 1
255.000000 -246.000000 65023.000000 40 57 1
256.000000 -246.000000 65023.000000 41 56 1
257.000000 -246.000000 65024.000000 42 53 1
258.000000 -246.000000 65025.000000 36 38 1
259.000000 -246.000000 65026.000000 30 41 1
260.000000 -246.000000 65028.000000 32 45 1
261.000000 -246.000000 65028.000000 34 48 3
262.000000 -246.000000 65028.000000 33 53 5
263.000000 -246.000000 65028.000000 33 54 3
265.000000 -246.000000 65029.000000 27 42 5
266.000000 -246.000000 65029.000000 26 26 10
267.000000 -246.000000 65029.000000 26 33 5
268.000000 -246.000000 65029.000000 28 44 1
269.000000 -246.000000 65029.000000 31 51 1
270.000000 -246.000000 65029.000000 30 53 1
271.000000 -246.000000 65031.000000 30 51 1
272.000000 -246.000000 65032.000000 27 46 1
273.000000 -246.000000 65032.000000 24 46 1
274.000000 -246.000000 65032.000000 34 47 1
275.000000 -246.000000 65033.000000 45 46 4
276.000000 -246.000000 65034.000000 34 46 8
277.000000 -246.000000 65035.000000 24 52 4
278.000000 -246.000000 65033.000000 24 57 1
279.000000 -246.000000 65035.000000 24 56 1
280.000000 -246.000000 65035.000000 34 56 1
281.000000 -246.000000 65035.000000 45 55 1
282.000000 -246.000000 65035.000000 43 54 1
283.000000 -246.000000 65032.000000 42 60 1
284.000000 -246.000000 65032.000000 47 51 1
285.000000 -246.000000 65032.000000 53 39 1
286.000000 -246.000000 65032.000000 60 19 1
287.000000 -246.000000 65032.000000 67 13 2
288.000000 -246.000000 65031.000000 69 7 2
289.000000 -246.000000 65029.000000 71 6 1
290.000000 -246.000000 65027.000000 64 6 1
291.000000 -246.000000 65026.000000 57 24 1
292.000000 -246.000000 65026.000000 53 48 1
293.000000 -246.000000 65026.000000 49 67 1
294.000000 -246.000000 65025.000000 54 73 1
295.000000 -246.000000 65026.000000 59 81 1
296.000000 -246.000000 65025.000000 66 89 1
297.000000 -246.000000 65025.000000 73 89 2
298.000000 -246.000000 65025.000000 77 90 4
299.000000 -246.000000 65024.000000 81 86 7
300.000000 -246.000000 65022.000000 82 82 10
301.000000 -246.000000 65020.000000 83 86 9
302.000000 -246.000000 65019.000000 83 91 9
303.000000 -246.000000 65019.000000 83 88 5
304.000000 -246.000000 65018.000000 79 85 1
305.000000 -246.000000 65017.000000 76 85 1
306.000000 -246.000000 65017.000000 73 86 1
307.000000 -246.000000 65017.000000 71 89 9
308.000000 -246.000000 65017.000000 76 94 16
309.000000 -246.000000 65017.000000 81 94 15
251.000000 -247.000000 65022.000000 68 72 1
252.000000 -247.000000 65022.000000 53 62 1
253.000000 -247.000000 65023.000000 39 59 1
254.000000 -247.000000 65023.000000 40 59 1
255.000000 -247.000000 65023.000000 41 59 1
256.000000 -247.000000 65023.000000 41 55 1
257.000000 -247.000000 65024.000000 42 56 1
258.000000 -247.000000 65025.000000 36 51 1
259.000000 -247.000000 65026.000000 30 47 1
260.000000 -247.000000 65028.000000 28 48 1
261.000000 -247.000000 65026.000000 27 50 5
262.000000 -247.000000 65027.000000 30 51 9
263.000000 -247.000000 65028.000000 33 54 5
264.000000 -247.000000 65028.000000 29 47 1
265.000000 -247.000000 65028.000000 24 40 1
266.000000 -247.000000 65029.000000 28 38 1
267.000000 -247.000000 65029.000000 32 37 1
268.000000 -247.000000 65029.000000 33 47 1
269.000000 -247.000000 65031.000000 35 52 1
270.000000 -247.000000 65031.000000 31 53 1
271.000000 -247.000000 65032.000000 28 56 1
272.000000 -247.000000 65032.000000 24 51 1
273.000000 -247.000000 65032.000000 20 51 1
274.000000 -247.000000 65032.000000 28 52 1
275.000000 -247.000000 65034.000000 37 53 1
276.000000 -247.000000 65034.000000 29 53 1
277.000000 -247.000000 65035.000000 21 54 1
278.000000 -247.000000 65035.000000 20 56 1
279.000000 -247.000000 65035.000000 19 60 1
280.000000 -247.000000 65035.000000 28 56 1
281.000000 -247.000000 65034.000000 37 54 1
282.000000 -247.000000 65034.000000 39 57 1
283.000000 -247.000000 65032.000000 42 60 1
284.000000 -247.000000 65032.000000 47 53 1
285.000000 -247.000000 65032.000000 53 46 1
286.000000 -247.000000 65032.000000 61 25 1
287.000000 -247.000000 65032.000000 69 17 2
288.000000 -247.000000 65031.000000 72 21 3
289.000000 -247.000000 65031.000000 75 26 2
290.000000 -247.000000 65028.000000 67 22 1
291.000000 -247.000000 65026.000000 59 18 1
292.000000 -247.000000 65026.000000 56 52 1
293.000000 -247.000000 65026.000000 54 65 1
294.000000 -247.000000 65026.000000 56 74 1
295.000000 -247.000000 65026.000000 59 80 1
296.000000 -247.000000 65025.000000 65 82 1
297.000000 -247.000000 65026.000000 72 85 4
298.000000 -247.000000 65025.000000 77 87 8
299.000000 -247.000000 65024.000000 81 92 5
300.000000 -247.000000 65023.000000 83 91 3
301.000000 -247.000000 65021.000000 85 91 2
302.000000 -247.000000 65020.000000 84 91 1
303.000000 -247.000000 65019.000000 83 92 1
304.000000 -247.000000 65019.000000 79 88 1
305.000000 -247.000000 65018.000000 76 88 1
306.000000 -247.000000 65017.000000 73 86 1
307.000000 -247.000000 65017.000000 71 90 1
308.000000 -247.000000 65017.000000 75 91 1
309.000000 -247.000000 65017.000000 79 93 7
251.000000 -248.000000 65022.000000 78 72 1
252.000000 -248.000000 65022.000000 63 61 1
253.000000 -248.000000 65023.000000 48 59 1
254.000000 -248.000000 65023.000000 45 60 1
255.000000 -248.000000 65023.000000 42 57 1
256.000000 -248.000000 65023.000000 42 55 1
257.000000 -248.000000 65024.000000 42 56 1
258.000000 -248.000000 65025.000000 36 57 1
259.000000 -248.000000 65026.000000 31 53 1
260.000000 -248.000000 65028.000000 25 50 1
261.000000 -248.000000 65026.000000 20 49 3
262.000000 -248.000000 65028.000000 27 49 5
263.000000 -248.000000 65029.000000 34 47 3
264.000000 -248.000000 65029.000000 28 45 1
265.000000 -248.000000 65029.000000 22 45 1
266.000000 -248.000000 65029.000000 30 45 1
267.000000 -248.000000 65029.000000 39 47 2
268.000000 -248.000000 65029.000000 39 50 4
269.000000 -248.000000 65030.000000 39 52 2
270.000000 -248.000000 65031.000000 32 53 1
271.000000 -248.000000 65032.000000 26 52 1
272.000000 -248.000000 65032.000000 21 51 1
273.000000 -248.000000 65032.000000 16 52 1
274.000000 -248.000000 65032.000000 23 53 1
275.000000 -248.000000 65034.000000 30 52 1
276.000000 -248.000000 65035.000000 24 52 1
277.000000 -248.000000 65035.000000 18 54 1
278.000000 -248.000000 65035.000000 16 55 1
279.000000 -248.000000 65035.000000 14 55 1
280.000000 -248.000000 65035.000000 21 56 1
281.000000 -248.000000 65033.000000 29 56 1
282.000000 -248.000000 65033.000000 35 62 1
283.000000 -248.000000 65032.000000 42 61 1
284.000000 -248.000000 65032.000000 48 55 1
285.000000 -248.000000 65032.000000 54 46 1
286.000000 -248.000000 65031.000000 62 32 1
287.000000 -248.000000 65031.000000 71 14 4
288.000000 -248.000000 65031.000000 75 53 7
289.000000 -248.000000 65030.000000 79 29 4
290.000000 -248.000000 65028.000000 70 25 1
291.000000 -248.000000 65026.000000 62 26 1
292.000000 -248.000000 65026.000000 60 56 1
293.000000 -248.000000 65026.000000 59 69 1
294.000000 -248.000000 65026.000000 59 76 1
295.000000 -248.000000 65026.000000 59 79 2
296.000000 -248.000000 65025.000000 65 81 3
297.000000 -248.000000 65026.000000 72 82 10
298.000000 -248.000000 65025.000000 77 84 17
299.000000 -248.000000 65025.000000 82 88 12
300.000000 -248.000000 65023.000000 84 92 7
301.000000 -248.000000 65021.000000 87 90 4
302.000000 -248.000000 65020.000000 85 89 1
303.000000 -248.000000 65020.000000 83 89 1
304.000000 -248.000000 65019.000000 79 89 1
305.000000 -248.000000 65018.000000 76 87 1
306.000000 -248.000000 65017.000000 74 87 1
307.000000 -248.000000 65017.000000 72 89 1
308.000000 -248.000000 65017.000000 74 90 1
309.000000 -248.000000 65017.000000 77 94 7
251.000000 -249.000000 65022.000000 67 83 2
252.000000 -249.000000 65022.000000 57 60 2
253.000000 -249.000000 65023.000000 48 58 1
254.000000 -249.000000 65023.000000 45 54 1
255.000000 -249.000000 65023.000000 42 49 1
256.000000 -249.000000 65023.000000 42 54 1
257.000000 -249.000000 65024.000000 42 56 1
258.000000 -249.000000 65025.000000 38 56 1
259.000000 -249.000000 65026.000000 34 55 1
260.000000 -249.000000 65026.000000 30 50 1
261.000000 -249.000000 65026.000000 26 45 1
262.000000 -249.000000 65027.000000 30 48 1
263.000000 -249.000000 65029.000000 34 48 1
264.000000 -249.000000 65029.000000 33 46 1
265.000000 -249.000000 65028.000000 33 46 1
266.000000 -249.000000 65028.000000 36 47 1
267.000000 -249.000000 65029.000000 39 48 4
268.000000 -249.000000 65029.000000 36 48 7
269.000000 -249.000000 65030.000000 34 53 4
270.000000 -249.000000 65032.000000 29 52 1
271.000000 -249.000000 65032.000000 25 51 1
272.000000 -249.000000 65032.000000 24 52 1
273.000000 -249.000000 65032.000000 23 53 1
274.000000 -249.000000 65032.000000 27 52 1
275.000000 -249.000000 65033.000000 32 51 1
276.000000 -249.000000 65034.000000 27 52 1
277.000000 -249.000000 65035.000000 22 55 1
278.000000 -249.000000 65034.000000 21 55 1
279.000000 -249.000000 65035.000000 20 53 1
280.000000 -249.000000 65035.000000 25 54 1
281.000000 -249.000000 65034.000000 31 58 1
282.000000 -249.000000 65033.000000 37 60 1
283.000000 -249.000000 65033.000000 43 63 1
284.000000 -249.000000 65032.000000 49 55 1
285.000000 -249.000000 65032.000000 54 46 1
286.000000 -249.000000 65032.000000 62 29 1
287.000000 -249.000000 65031.000000 70 12 6
288.000000 -249.000000 65031.000000 75 22 12
289.000000 -249.000000 65030.000000 80 33 6
290.000000 -249.000000 65028.000000 71 33 1
291.000000 -249.000000 65026.000000 63 34 1
292.000000 -249.000000 65026.000000 60 52 1
293.000000 -249.000000 65026.000000 57 73 1
294.000000 -249.000000 65026.000000 58 76 1
295.000000 -249.000000 65026.000000 59 79 3
296.000000 -249.000000 65026.000000 64 79 6
297.000000 -249.000000 65026.000000 70 77 16
298.000000 -249.000000 65025.000000 75 81 27
299.000000 -249.000000 65024.000000 79 85 19
300.000000 -249.000000 65022.000000 83 85 12
301.000000 -249.000000 65020.000000 86 85 6
302.000000 -249.000000 65020.000000 85 87 1
303.000000 -249.000000 65020.000000 84 87 1
304.000000 -249.000000 65019.000000 80 87 1
305.000000 -249.000000 65018.000000 77 87 1
306.000000 -249.000000 65017.000000 73 87 1
307.000000 -249.000000 65017.000000 70 89 1
308.000000 -249.000000 65017.000000 70 90 2
309.000000 -249.000000 65016.000000 71 95 7
310.000000 -249.000000 65016.000000 67 60 13
251.000000 -250.000000 65022.000000 56 71 1
252.000000 -250.000000 65022.000000 52 59 1
253.000000 -250.000000 65023.000000 49 56 1
254.000000 -250.000000 65023.000000 46 51 1
255.000000 -250.000000 65023.000000 43 52 1
256.000000 -250.000000 65023.000000 42 54 1
257.000000 -250.000000 65026.000000 42 55 1
258.000000 -250.000000 65025.000000 40 56 1
259.000000 -250.000000 65026.000000 38 54 1
260.000000 -250.000000 65026.000000 35 50 1
261.000000 -250.000000 65026.000000 33 49 1
262.000000 -250.000000 65026.000000 33 48 1
263.000000 -250.000000 65026.000000 34 47 1
264.000000 -250.000000 65028.000000 39 47 1
265.000000 -250.000000 65028.000000 45 48 1
266.000000 -250.000000 65028.000000 42 50 1
267.000000 -250.000000 65029.000000 39 48 2
268.000000 -250.000000 65029.000000 34 47 4
269.000000 -250.000000 65030.000000 29 52 2
270.000000 -250.000000 65032.000000 26 51 1
271.000000 -250.000000 65032.000000 24 52 1
272.000000 -250.000000 65032.000000 27 53 1
273.000000 -250.000000 65032.000000 30 52 1
274.000000 -250.000000 65033.000000 32 51 1
275.000000 -250.000000 65034.000000 35 51 1
276.000000 -250.000000 65034.000000 31 52 1
277.000000 -250.000000 65035.000000 27 54 1
278.000000 -250.000000 65034.000000 26 55 1
279.000000 -250.000000 65035.000000 26 54 1
280.000000 -250.000000 65035.000000 30 51 1
281.000000 -250.000000 65034.000000 34 56 1
282.000000 -250.000000 65033.000000 39 58 1
283.000000 -250.000000 65033.000000 45 56 1
284.000000 -250.000000 65032.000000 50 55 1
285.000000 -250.000000 65032.000000 55 46 1
286.000000 -250.000000 65031.000000 62 27 1
287.000000 -250.000000 65031.000000 70 25 3
288.000000 -250.000000 65031.000000 76 24 6
289.000000 -250.000000 65030.000000 82 34 3
290.000000 -250.000000 65028.000000 73 5 1
291.000000 -250.000000 65027.000000 64 23 1
292.000000 -250.000000 65026.000000 60 49 1
293.000000 -250.000000 65026.000000 56 70 1
294.000000 -250.000000 65026.000000 57 76 1
295.000000 -250.000000 65026.000000 59 79 2
296.000000 -250.000000 65026.000000 64 79 4
297.000000 -250.000000 65026.000000 69 77 12
298.000000 -250.000000 65025.000000 73 67 19
299.000000 -250.000000 65024.000000 77 80 13
300.000000 -250.000000 65022.000000 81 82 7
301.000000 -250.000000 65021.000000 86 86 4
302.000000 -250.000000 65020.000000 85 87 1
303.000000 -250.000000 65020.000000 85 87 1
304.000000 -250.000000 65019.000000 81 88 1
305.000000 -250.000000 65018.000000 78 87 1
306.000000 -250.000000 65017.000000 73 87 2
307.000000 -250.000000 65017.000000 68 89 1
308.000000 -250.000000 65017.000000 67 91 1
309.000000 -250.000000 65016.000000 66 88 7
310.000000 -250.000000 65016.000000 68 58 13
252.000000 -251.000000 65022.000000 46 62 1
253.000000 -251.000000 65023.000000 45 54 1
254.000000 -251.000000 65023.000000 44 53 1
255.000000 -251.000000 65024.000000 43 53 1
256.000000 -251.000000 65024.000000 42 56 1
257.000000 -251.000000 65026.000000 41 63 1
258.000000 -251.000000 65025.000000 40 55 1
259.000000 -251.000000 65026.000000 40 54 1
260.000000 -251.000000 65026.000000 37 52 1
261.000000 -251.000000 65026.000000 34 50 1
262.000000 -251.000000 65026.000000 33 52 1
263.000000 -251.000000 65026.000000 33 55 1
264.000000 -251.000000 65028.000000 32 52 1
265.000000 -251.000000 65029.000000 32 49 1
266.000000 -251.000000 65029.000000 34 49 1
267.000000 -251.000000 65030.000000 36 49 1
268.000000 -251.000000 65030.000000 33 48 1
269.000000 -251.000000 65031.000000 29 52 1
270.000000 -251.000000 65031.000000 27 51 1
271.000000 -251.000000 65032.000000 24 54 1
272.000000 -251.000000 65032.000000 28 53 1
273.000000 -251.000000 65033.000000 32 51 1
274.000000 -251.000000 65034.000000 32 53 1
275.000000 -251.000000 65035.000000 32 46 1
276.000000 -251.000000 65035.000000 29 49 1
277.000000 -251.000000 65035.000000 25 54 1
278.000000 -251.000000 65035.000000 26 54 1
279.000000 -251.000000 65035.000000 28 57 1
280.000000 -251.000000 65035.000000 32 56 1
281.000000 -251.000000 65034.000000 36 55 1
282.000000 -251.000000 65034.000000 41 56 1
283.000000 -251.000000 65033.000000 46 58 1
284.000000 -251.000000 65032.000000 50 56 1
285.000000 -251.000000 65032.000000 55 46 1
286.000000 -251.000000 65031.000000 62 19 1
287.000000 -251.000000 65031.000000 68 7 1
288.000000 -251.000000 65030.000000 74 29 1
289.000000 -251.000000 65029.000000 80 36 1
290.000000 -251.000000 65029.000000 72 24 1
291.000000 -251.000000 65028.000000 64 12 1
292.000000 -251.000000 65027.000000 56 47 1
293.000000 -251.000000 65027.000000 48 67 1
294.000000 -251.000000 65026.000000 53 77 1
295.000000 -251.000000 65026.000000 59 80 2
296.000000 -251.000000 65026.000000 65 79 3
297.000000 -251.000000 65026.000000 72 78 7
298.000000 -251.000000 65025.000000 75 77 12
299.000000 -251.000000 65024.000000 78 76 7
300.000000 -251.000000 65023.000000 84 86 3
301.000000 -251.000000 65022.000000 89 88 2
302.000000 -251.000000 65020.000000 89 88 2
303.000000 -251.000000 65020.000000 88 88 1
304.000000 -251.000000 65020.000000 83 88 1
305.000000 -251.000000 65018.000000 79 83 2
306.000000 -251.000000 65018.000000 73 83 3
307.000000 -251.000000 65017.000000 68 84 2
308.000000 -251.000000 65017.000000 66 82 1
309.000000 -251.000000 65017.000000 64 81 7
310.000000 -251.000000 65017.000000 68 69 14
252.000000 -252.000000 65023.000000 41 65 9
253.000000 -252.000000 65023.000000 41 56 5
254.000000 -252.000000 65023.000000 42 58 1
255.000000 -252.000000 65024.000000 44 58 1
256.000000 -252.000000 65025.000000 42 58 1
257.000000 -252.000000 65025.000000 41 56 1
258.000000 -252.000000 65026.000000 41 55 1
259.000000 -252.000000 65026.000000 42 54 1
260.000000 -252.000000 65026.000000 38 58 1
261.000000 -252.000000 65026.000000 35 57 1
262.000000 -252.000000 65026.000000 34 56 1
263.000000 -252.000000 65026.000000 33 54 1
264.000000 -252.000000 65028.000000 26 54 1
265.000000 -252.000000 65028.000000 19 49 1
266.000000 -252.000000 65029.000000 26 50 1
267.000000 -252.000000 65030.000000 34 49 1
268.000000 -252.000000 65030.000000 32 49 1
269.000000 -252.000000 65031.000000 30 51 1
270.000000 -252.000000 65032.000000 27 52 1
271.000000 -252.000000 65032.000000 25 52 1
272.000000 -252.000000 65033.000000 29 53 1
273.000000 -252.000000 65033.000000 34 53 1
274.000000 -252.000000 65034.000000 32 55 1
275.000000 -252.000000 65034.000000 30 48 1
276.000000 -252.000000 65035.000000 27 46 1
277.000000 -252.000000 65035.000000 24 50 1
278.000000 -252.000000 65034.000000 27 54 1
279.000000 -252.000000 65035.000000 30 55 1
280.000000 -252.000000 65035.000000 34 56 1
281.000000 -252.000000 65034.000000 38 55 1
282.000000 -252.000000 65034.000000 42 55 1
283.000000 -252.000000 65033.000000 47 56 1
284.000000 -252.000000 65033.000000 51 57 1
285.000000 -252.000000 65032.000000 56 45 1
286.000000 -252.000000 65032.000000 61 11 2
287.000000 -252.000000 65032.000000 67 17 13
288.000000 -252.000000 65030.000000 73 34 25
289.000000 -252.000000 65029.000000 79 37 13
290.000000 -252.000000 65028.000000 71 30 1
291.000000 -252.000000 65028.000000 64 37 1
292.000000 -252.000000 65027.000000 52 45 1
293.000000 -252.000000 65027.000000 41 70 1
294.000000 -252.000000 65026.000000 50 78 1
295.000000 -252.000000 65026.000000 59 82 2
296.000000 -252.000000 65026.000000 67 84 3
297.000000 -252.000000 65026.000000 75 81 4
298.000000 -252.000000 65025.000000 77 76 6
299.000000 -252.000000 65024.000000 80 76 4
300.000000 -252.000000 65023.000000 86 90 2
301.000000 -252.000000 65022.000000 93 90 4
302.000000 -252.000000 65021.000000 92 91 6
303.000000 -252.000000 65020.000000 92 90 6
304.000000 -252.000000 65020.000000 86 89 6
305.000000 -252.000000 65019.000000 80 83 6
306.000000 -252.000000 65018.000000 74 85 6
307.000000 -252.000000 65017.000000 68 84 4
308.000000 -252.000000 65017.000000 65 84 2
309.000000 -252.000000 65017.000000 63 77 8
310.000000 -252.000000 65017.000000 69 74 14
252.000000 -253.000000 65023.000000 31 50 17
253.000000 -253.000000 65023.000000 31 59 9
254.000000 -253.000000 65023.000000 35 57 1
255.000000 -253.000000 65025.000000 38 55 1
256.000000 -253.000000 65025.000000 42 54 1
257.000000 -253.000000 65026.000000 45 54 1
258.000000 -253.000000 65026.000000 42 54 1
259.000000 -253.000000 65026.000000 40 55 1
260.000000 -253.000000 65026.000000 37 57 1
261.000000 -253.000000 65026.000000 35 53 1
262.000000 -253.000000 65026.000000 36 54 1
263.000000 -253.000000 65026.000000 37 54 1
264.000000 -253.000000 65028.000000 30 52 1
265.000000 -253.000000 65029.000000 24 50 1
266.000000 -253.000000 65029.000000 29 48 1
267.000000 -253.000000 65030.000000 34 42 1
268.000000 -253.000000 65030.000000 36 47 1
269.000000 -253.000000 65031.000000 38 50 1
270.000000 -253.000000 65032.000000 32 50 1
271.000000 -253.000000 65032.000000 27 50 1
272.000000 -253.000000 65033.000000 29 52 1
273.000000 -253.000000 65033.000000 31 53 1
274.000000 -253.000000 65034.000000 30 52 1
275.000000 -253.000000 65033.000000 28 51 1
276.000000 -253.000000 65034.000000 24 48 1
277.000000 -253.000000 65035.000000 21 47 1
278.000000 -253.000000 65034.000000 24 50 1
279.000000 -253.000000 65035.000000 27 54 1
280.000000 -253.000000 65035.000000 30 53 1
281.000000 -253.000000 65034.000000 33 53 1
282.000000 -253.000000 65034.000000 38 57 1
283.000000 -253.000000 65034.000000 44 64 1
284.000000 -253.000000 65033.000000 49 59 2
285.000000 -253.000000 65033.000000 55 45 2
286.000000 -253.000000 65032.000000 62 36 3
287.000000 -253.000000 65032.000000 69 28 26
288.000000 -253.000000 65030.000000 76 32 50
289.000000 -253.000000 65029.000000 83 39 25
290.000000 -253.000000 65029.000000 73 34 1
291.000000 -253.000000 65028.000000 63 41 1
292.000000 -253.000000 65027.000000 55 49 1
293.000000 -253.000000 65027.000000 47 73 1
294.000000 -253.000000 65026.000000 54 77 1
295.000000 -253.000000 65026.000000 61 84 2
296.000000 -253.000000 65026.000000 70 84 3
297.000000 -253.000000 65026.000000 80 85 2
298.000000 -253.000000 65026.000000 79 78 1
299.000000 -253.000000 65024.000000 79 77 1
300.000000 -253.000000 65023.000000 85 87 1
301.000000 -253.000000 65022.000000 91 91 5
302.000000 -253.000000 65021.000000 91 90 10
303.000000 -253.000000 65020.000000 91 93 10
304.000000 -253.000000 65020.000000 84 88 11
305.000000 -253.000000 65020.000000 78 83 10
306.000000 -253.000000 65019.000000 70 87 9
307.000000 -253.000000 65018.000000 62 89 6
308.000000 -253.000000 65017.000000 59 81 3
309.000000 -253.000000 65017.000000 56 74 8
310.000000 -253.000000 65017.000000 65 73 14
255.000000 -254.000000 65025.000000 33 49 1
256.000000 -254.000000 65026.000000 41 53 1
257.000000 -254.000000 65026.000000 50 53 1
258.000000 -254.000000 65026.000000 44 58 1
259.000000 -254.000000 65026.000000 38 56 1
260.000000 -254.000000 65026.000000 36 57 1
261.000000 -254.000000 65026.000000 35 55 1
262.000000 -254.000000 65026.000000 38 55 1
263.000000 -254.000000 65027.000000 41 52 1
264.000000 -254.000000 65028.000000 35 48 1
265.000000 -254.000000 65029.000000 30 47 1
266.000000 -254.000000 65029.000000 32 46 1
267.000000 -254.000000 65030.000000 34 44 1
268.000000 -254.000000 65030.000000 40 45 1
269.000000 -254.000000 65031.000000 46 50 1
270.000000 -254.000000 65032.000000 38 46 1
271.000000 -254.000000 65031.000000 30 50 1
272.000000 -254.000000 65032.000000 29 51 1
273.000000 -254.000000 65033.000000 29 51 1
274.000000 -254.000000 65034.000000 28 50 1
275.000000 -254.000000 65033.000000 27 50 1
276.000000 -254.000000 65034.000000 22 50 1
277.000000 -254.000000 65035.000000 18 48 1
278.000000 -254.000000 65034.000000 21 46 1
279.000000 -254.000000 65035.000000 24 46 7
280.000000 -254.000000 65035.000000 26 46 14
281.000000 -254.000000 65035.000000 29 55 7
282.000000 -254.000000 65034.000000 35 59 1
283.000000 -254.000000 65034.000000 41 60 1
284.000000 -254.000000 65033.000000 48 62 2
285.000000 -254.000000 65033.000000 55 46 2
286.000000 -254.000000 65032.000000 63 39 2
287.000000 -254.000000 65031.000000 71 29 15
288.000000 -254.000000 65030.000000 79 31 28
289.000000 -254.000000 65029.000000 88 29 14
290.000000 -254.000000 65028.000000 75 28 1
291.000000 -254.000000 65028.000000 63 40 1
292.000000 -254.000000 65027.000000 58 54 1
293.000000 -254.000000 65027.000000 54 72 1
294.000000 -254.000000 65026.000000 58 77 1
295.000000 -254.000000 65026.000000 63 83 1
296.000000 -254.000000 65026.000000 74 92 2
297.000000 -254.000000 65026.000000 86 84 1
298.000000 -254.000000 65026.000000 82 80 1
299.000000 -254.000000 65024.000000 78 82 1
300.000000 -254.000000 65023.000000 83 84 1
301.000000 -254.000000 65022.000000 89 93 3
302.000000 -254.000000 65021.000000 90 90 6
303.000000 -254.000000 65020.000000 91 89 6
304.000000 -254.000000 65020.000000 83 88 7
305.000000 -254.000000 65020.000000 76 89 6
306.000000 -254.000000 65019.000000 66 91 5
307.000000 -254.000000 65018.000000 57 86 3
308.000000 -254.000000 65018.000000 53 67 2
309.000000 -254.000000 65017.000000 49 69 7
310.000000 -254.000000 65017.000000 61 72 12
255.000000 -255.000000 65026.000000 24 46 1
256.000000 -255.000000 65026.000000 33 49 1
257.000000 -255.000000 65026.000000 42 53 1
258.000000 -255.000000 65026.000000 36 55 1
259.000000 -255.000000 65026.000000 31 56 1
260.000000 -255.000000 65026.000000 32 55 1
261.000000 -255.000000 65026.000000 32 55 1
262.000000 -255.000000 65026.000000 34 54 1
263.000000 -255.000000 65027.000000 35 50 1
264.000000 -255.000000 65028.000000 30 46 1
265.000000 -255.000000 65029.000000 26 42 1
266.000000 -255.000000 65029.000000 27 42 1
267.000000 -255.000000 65030.000000 29 43 1
268.000000 -255.000000 65030.000000 33 47 1
269.000000 -255.000000 65031.000000 38 50 1
270.000000 -255.000000 65031.000000 31 50 1
271.000000 -255.000000 65032.000000 24 51 1
272.000000 -255.000000 65033.000000 26 51 1
273.000000 -255.000000 65033.000000 27 52 1
274.000000 -255.000000 65033.000000 26 52 1
275.000000 -255.000000 65033.000000 26 52 1
276.000000 -255.000000 65033.000000 21 50 1
277.000000 -255.000000 65034.000000 16 51 1
278.000000 -255.000000 65034.000000 20 51 1
279.000000 -255.000000 65035.000000 25 51 14
280.000000 -255.000000 65035.000000 28 54 28
281.000000 -255.000000 65035.000000 31 58 14
282.000000 -255.000000 65034.000000 36 61 1
283.000000 -255.000000 65034.000000 41 68 1
284.000000 -255.000000 65034.000000 47 58 2
285.000000 -255.000000 65033.000000 53 47 1
286.000000 -255.000000 65032.000000 61 30 1
287.000000 -255.000000 65031.000000 69 20 4
288.000000 -255.000000 65030.000000 75 23 7
289.000000 -255.000000 65029.000000 82 26 4
290.000000 -255.000000 65028.000000 71 24 1
291.000000 -255.000000 65028.000000 61 39 1
292.000000 -255.000000 65027.000000 58 51 1
293.000000 -255.000000 65027.000000 54 71 1
294.000000 -255.000000 65026.000000 58 75 1
295.000000 -255.000000 65026.000000 63 82 1
296.000000 -255.000000 65026.000000 72 82 1
297.000000 -255.000000 65026.000000 81 83 1
298.000000 -255.000000 65026.000000 75 81 1
299.000000 -255.000000 65026.000000 70 82 1
300.000000 -255.000000 65023.000000 79 88 1
301.000000 -255.000000 65021.000000 87 96 1
302.000000 -255.000000 65021.000000 93 91 2
303.000000 -255.000000 65020.000000 98 86 2
304.000000 -255.000000 65020.000000 82 87 3
305.000000 -255.000000 65020.000000 66 91 2
306.000000 -255.000000 65018.000000 55 87 2
307.000000 -255.000000 65018.000000 45 83 1
308.000000 -255.000000 65018.000000 38 71 1
309.000000 -255.000000 65017.000000 32 60 5
310.000000 -255.000000 65017.000000 54 68 10
311.000000 -255.000000 65017.000000 76 71 15
255.000000 -256.000000 65026.000000 16 29 2
256.000000 -256.000000 65026.000000 25 46 1
257.000000 -256.000000 65026.000000 34 50 1
258.000000 -256.000000 65026.000000 29 55 1
259.000000 -256.000000 65026.000000 25 55 1
260.000000 -256.000000 65026.000000 27 55 1
261.000000 -256.000000 65026.000000 30 55 1
262.000000 -256.000000 65026.000000 30 53 1
263.000000 -256.000000 65027.000000 30 50 1
264.000000 -256.000000 65029.000000 26 45 1
265.000000 -256.000000 65029.000000 22 42 1
266.000000 -256.000000 65030.000000 23 34 1
267.000000 -256.000000 65031.000000 24 44 3
268.000000 -256.000000 65031.000000 27 49 5
269.000000 -256.000000 65032.000000 31 52 3
270.000000 -256.000000 65032.000000 25 54 1
271.000000 -256.000000 65032.000000 19 53 1
272.000000 -256.000000 65034.000000 22 53 1
273.000000 -256.000000 65034.000000 26 53 1
274.000000 -256.000000 65034.000000 25 54 1
275.000000 -256.000000 65034.000000 25 50 1
276.000000 -256.000000 65034.000000 19 50 1
277.000000 -256.000000 65035.000000 14 50 1
278.000000 -256.000000 65035.000000 20 53 1
279.000000 -256.000000 65035.000000 26 54 7
280.000000 -256.000000 65035.000000 30 55 14
281.000000 -256.000000 65035.000000 34 57 7
282.000000 -256.000000 65035.000000 38 64 1
283.000000 -256.000000 65035.000000 42 66 1
284.000000 -256.000000 65034.000000 46 55 1
285.000000 -256.000000 65032.000000 51 43 1
286.000000 -256.000000 65032.000000 59 22 1
287.000000 -256.000000 65032.000000 67 22 16
288.000000 -256.000000 65030.000000 71 22 32
289.000000 -256.000000 65030.000000 76 21 17
290.000000 -256.000000 65029.000000 68 21 1
291.000000 -256.000000 65028.000000 60 36 1
292.000000 -256.000000 65028.000000 57 49 1
293.000000 -256.000000 65027.000000 55 68 1
