ply
    format ascii 1.0
    element vertex 10438
    property float x
    property float y
    property float z
    property uchar red
    property uchar green
    property uchar blue
    end_header
268.000000 -175.000000 64998.000000 78 64 21
269.000000 -175.000000 64999.000000 76 62 24
270.000000 -175.000000 65000.000000 76 62 27
271.000000 -175.000000 65000.000000 75 54 14
272.000000 -175.000000 65000.000000 73 59 1
273.000000 -175.000000 65000.000000 71 56 11
274.000000 -175.000000 65000.000000 72 60 21
275.000000 -175.000000 65001.000000 74 62 26
276.000000 -175.000000 65001.000000 77 64 31
277.000000 -175.000000 65001.000000 79 69 46
278.000000 -175.000000 65002.000000 83 76 61
279.000000 -175.000000 65001.000000 86 84 66
280.000000 -175.000000 65001.000000 92 89 71
281.000000 -175.000000 65000.000000 98 97 71
282.000000 -175.000000 65000.000000 103 98 72
283.000000 -175.000000 65000.000000 109 99 82
284.000000 -175.000000 65000.000000 114 95 92
285.000000 -175.000000 64999.000000 120 92 76
286.000000 -175.000000 64998.000000 125 102 61
287.000000 -175.000000 64995.000000 131 112 79
288.000000 -175.000000 64994.000000 138 116 97
289.000000 -175.000000 64994.000000 145 120 99
290.000000 -175.000000 64994.000000 147 127 102
291.000000 -175.000000 64994.000000 149 132 64
292.000000 -175.000000 64994.000000 121 116 26
293.000000 -175.000000 64994.000000 93 69 13
294.000000 -175.000000 64994.000000 67 22 1
265.000000 -176.000000 64995.000000 83 61 21
266.000000 -176.000000 64996.000000 81 64 22
267.000000 -176.000000 64997.000000 79 65 19
268.000000 -176.000000 64997.000000 78 67 17
269.000000 -176.000000 64999.000000 77 66 27
270.000000 -176.000000 64999.000000 75 65 36
271.000000 -176.000000 65000.000000 73 55 22
272.000000 -176.000000 65000.000000 71 59 8
273.000000 -176.000000 65000.000000 69 59 20
274.000000 -176.000000 65001.000000 72 60 32
275.000000 -176.000000 65001.000000 76 62 37
276.000000 -176.000000 65002.000000 77 65 42
277.000000 -176.000000 65002.000000 79 68 51
278.000000 -176.000000 65002.000000 82 77 60
279.000000 -176.000000 65001.000000 86 80 68
280.000000 -176.000000 65001.000000 91 93 76
281.000000 -176.000000 65000.000000 97 97 77
282.000000 -176.000000 65000.000000 104 102 79
283.000000 -176.000000 65000.000000 111 97 87
284.000000 -176.000000 65000.000000 118 126 95
285.000000 -176.000000 65000.000000 125 124 86
286.000000 -176.000000 65000.000000 130 123 77
287.000000 -176.000000 64996.000000 135 126 86
288.000000 -176.000000 64994.000000 143 130 95
289.000000 -176.000000 64994.000000 152 129 104
290.000000 -176.000000 64994.000000 149 128 113
291.000000 -176.000000 64994.000000 147 133 75
292.000000 -176.000000 64994.000000 119 111 37
293.000000 -176.000000 64994.000000 92 61 19
294.000000 -176.000000 64994.000000 67 26 1
263.000000 -177.000000 64994.000000 109 61 13
264.000000 -177.000000 64994.000000 95 62 14
265.000000 -177.000000 64994.000000 80 72 28
266.000000 -177.000000 64996.000000 78 59 43
267.000000 -177.000000 64997.000000 76 54 28
268.000000 -177.000000 64997.000000 73 63 14
269.000000 -177.000000 64999.000000 70 73 30
270.000000 -177.000000 64999.000000 68 58 46
271.000000 -177.000000 65000.000000 65 56 30
272.000000 -177.000000 65000.000000 65 52 15
273.000000 -177.000000 65000.000000 64 49 29
274.000000 -177.000000 65001.000000 67 52 43
275.000000 -177.000000 65001.000000 70 55 48
276.000000 -177.000000 65002.000000 68 60 54
277.000000 -177.000000 65002.000000 66 67 57
278.000000 -177.000000 65002.000000 73 67 60
279.000000 -177.000000 65001.000000 81 68 70
280.000000 -177.000000 65001.000000 86 75 81
281.000000 -177.000000 65001.000000 91 82 83
282.000000 -177.000000 65000.000000 97 89 86
283.000000 -177.000000 65000.000000 103 96 92
284.000000 -177.000000 65000.000000 109 100 99
285.000000 -177.000000 65000.000000 116 104 96
286.000000 -177.000000 65000.000000 122 114 94
287.000000 -177.000000 64998.000000 128 125 94
288.000000 -177.000000 64996.000000 135 127 94
289.000000 -177.000000 64994.000000 142 129 109
290.000000 -177.000000 64994.000000 142 132 124
291.000000 -177.000000 64994.000000 143 135 86
292.000000 -177.000000 64994.000000 119 114 48
293.000000 -177.000000 64994.000000 94 54 24
263.000000 -178.000000 64994.000000 110 64 10
264.000000 -178.000000 64994.000000 94 67 11
265.000000 -178.000000 64995.000000 78 67 23
266.000000 -178.000000 64996.000000 75 55 35
267.000000 -178.000000 64997.000000 73 53 25
268.000000 -178.000000 64998.000000 68 45 14
269.000000 -178.000000 64999.000000 64 48 23
270.000000 -178.000000 64999.000000 61 51 31
271.000000 -178.000000 65000.000000 58 49 19
272.000000 -178.000000 65000.000000 59 47 8
273.000000 -178.000000 65000.000000 60 48 17
274.000000 -178.000000 65001.000000 62 50 26
275.000000 -178.000000 65001.000000 65 53 33
276.000000 -178.000000 65002.000000 59 56 40
277.000000 -178.000000 65003.000000 53 64 35
278.000000 -178.000000 65002.000000 65 63 30
279.000000 -178.000000 65001.000000 77 68 51
280.000000 -178.000000 65001.000000 81 51 73
281.000000 -178.000000 65001.000000 85 81 76
282.000000 -178.000000 65000.000000 90 76 80
283.000000 -178.000000 65000.000000 95 79 86
284.000000 -178.000000 65000.000000 101 82 91
285.000000 -178.000000 65000.000000 107 104 92
286.000000 -178.000000 65000.000000 114 95 94
287.000000 -178.000000 64999.000000 122 96 96
288.000000 -178.000000 64997.000000 127 97 99
289.000000 -178.000000 64995.000000 132 119 105
290.000000 -178.000000 64994.000000 136 135 111
291.000000 -178.000000 64994.000000 140 126 79
292.000000 -178.000000 64994.000000 118 118 48
293.000000 -178.000000 64994.000000 97 67 25
294.000000 -178.000000 64994.000000 65 26 2
263.000000 -179.000000 64994.000000 106 67 6
264.000000 -179.000000 64995.000000 94 64 9
265.000000 -179.000000 64996.000000 82 62 18
266.000000 -179.000000 64996.000000 78 56 28
267.000000 -179.000000 64997.000000 74 53 21
268.000000 -179.000000 64997.000000 68 52 15
269.000000 -179.000000 64999.000000 63 51 16
270.000000 -179.000000 64999.000000 56 48 17
271.000000 -179.000000 65000.000000 49 45 9
272.000000 -179.000000 65000.000000 55 47 1
273.000000 -179.000000 65001.000000 61 54 5
274.000000 -179.000000 65002.000000 64 54 9
275.000000 -179.000000 65002.000000 68 63 17
276.000000 -179.000000 65003.000000 67 56 26
277.000000 -179.000000 65003.000000 66 61 13
278.000000 -179.000000 65003.000000 75 65 1
279.000000 -179.000000 65003.000000 84 69 33
280.000000 -179.000000 65002.000000 89 75 65
281.000000 -179.000000 65001.000000 94 81 70
282.000000 -179.000000 65001.000000 99 84 75
283.000000 -179.000000 65001.000000 104 88 79
284.000000 -179.000000 65001.000000 110 96 84
285.000000 -179.000000 65000.000000 117 105 89
286.000000 -179.000000 65000.000000 122 100 94
287.000000 -179.000000 64999.000000 127 96 99
288.000000 -179.000000 64998.000000 130 102 104
289.000000 -179.000000 64997.000000 134 109 101
290.000000 -179.000000 64997.000000 134 112 98
291.000000 -179.000000 64997.000000 135 116 73
292.000000 -179.000000 64997.000000 114 107 48
293.000000 -179.000000 64997.000000 93 80 25
294.000000 -179.000000 64996.000000 65 26 3
263.000000 -180.000000 64994.000000 103 62 25
264.000000 -180.000000 64995.000000 94 62 15
265.000000 -180.000000 64996.000000 86 63 23
266.000000 -180.000000 64996.000000 81 57 32
267.000000 -180.000000 64997.000000 76 56 25
268.000000 -180.000000 64997.000000 69 55 18
269.000000 -180.000000 64999.000000 62 49 16
270.000000 -180.000000 64999.000000 51 41 15
271.000000 -180.000000 65000.000000 41 44 14
272.000000 -180.000000 65000.000000 51 47 13
273.000000 -180.000000 65001.000000 62 56 12
274.000000 -180.000000 65001.000000 66 58 12
275.000000 -180.000000 65002.000000 71 57 22
276.000000 -180.000000 65003.000000 75 56 33
277.000000 -180.000000 65003.000000 79 61 26
278.000000 -180.000000 65003.000000 85 77 19
279.000000 -180.000000 65002.000000 92 82 38
280.000000 -180.000000 65001.000000 97 87 58
281.000000 -180.000000 65001.000000 103 89 67
282.000000 -180.000000 65001.000000 108 92 75
283.000000 -180.000000 65001.000000 113 90 75
284.000000 -180.000000 65001.000000 120 126 75
285.000000 -180.000000 65000.000000 127 130 84
286.000000 -180.000000 65000.000000 130 134 92
287.000000 -180.000000 65000.000000 133 128 96
288.000000 -180.000000 64998.000000 134 123 100
289.000000 -180.000000 64998.000000 136 118 101
290.000000 -180.000000 64997.000000 133 114 101
291.000000 -180.000000 64997.000000 130 122 73
292.000000 -180.000000 64997.000000 110 96 44
293.000000 -180.000000 64997.000000 90 69 23
294.000000 -180.000000 64996.000000 64 26 2
263.000000 -181.000000 64994.000000 108 65 43
264.000000 -181.000000 64995.000000 98 64 21
265.000000 -181.000000 64996.000000 89 64 28
266.000000 -181.000000 64996.000000 84 62 36
267.000000 -181.000000 64997.000000 79 60 28
268.000000 -181.000000 64997.000000 73 57 21
269.000000 -181.000000 64999.000000 67 47 17
270.000000 -181.000000 64999.000000 60 45 13
271.000000 -181.000000 65000.000000 54 43 19
272.000000 -181.000000 65000.000000 61 52 25
273.000000 -181.000000 65001.000000 69 58 20
274.000000 -181.000000 65001.000000 73 57 15
275.000000 -181.000000 65001.000000 78 56 27
276.000000 -181.000000 65002.000000 80 59 40
277.000000 -181.000000 65002.000000 82 62 38
278.000000 -181.000000 65002.000000 88 82 37
279.000000 -181.000000 65002.000000 94 85 44
280.000000 -181.000000 65002.000000 98 87 52
281.000000 -181.000000 65001.000000 102 90 64
282.000000 -181.000000 65001.000000 107 91 76
283.000000 -181.000000 65001.000000 112 92 71
284.000000 -181.000000 65001.000000 118 118 67
285.000000 -181.000000 65001.000000 125 122 79
286.000000 -181.000000 65000.000000 128 124 91
287.000000 -181.000000 65000.000000 132 126 94
288.000000 -181.000000 65000.000000 135 127 97
289.000000 -181.000000 64999.000000 139 132 101
290.000000 -181.000000 64999.000000 141 130 105
291.000000 -181.000000 64997.000000 144 128 73
292.000000 -181.000000 64997.000000 117 108 41
293.000000 -181.000000 64997.000000 90 59 21
263.000000 -182.000000 64994.000000 114 64 42
264.000000 -182.000000 64995.000000 103 70 27
265.000000 -182.000000 64996.000000 92 63 30
266.000000 -182.000000 64996.000000 87 62 34
267.000000 -182.000000 64996.000000 82 60 27
268.000000 -182.000000 64997.000000 77 59 21
269.000000 -182.000000 64998.000000 72 56 22
270.000000 -182.000000 64999.000000 69 54 23
271.000000 -182.000000 64999.000000 67 56 39
272.000000 -182.000000 65000.000000 72 58 54
273.000000 -182.000000 65001.000000 77 60 42
274.000000 -182.000000 65001.000000 81 67 29
275.000000 -182.000000 65001.000000 85 78 29
276.000000 -182.000000 65001.000000 85 90 29
277.000000 -182.000000 65001.000000 86 88 34
278.000000 -182.000000 65001.000000 91 87 40
279.000000 -182.000000 65002.000000 96 89 48
280.000000 -182.000000 65002.000000 99 93 56
281.000000 -182.000000 65002.000000 102 94 71
282.000000 -182.000000 65002.000000 106 96 86
283.000000 -182.000000 65001.000000 111 103 81
284.000000 -182.000000 65001.000000 117 111 75
285.000000 -182.000000 65001.000000 123 122 88
286.000000 -182.000000 65001.000000 127 123 101
287.000000 -182.000000 65000.000000 131 124 110
288.000000 -182.000000 65000.000000 136 129 119
289.000000 -182.000000 65000.000000 142 133 113
290.000000 -182.000000 65000.000000 150 140 108
291.000000 -182.000000 65000.000000 158 136 77
292.000000 -182.000000 64997.000000 124 120 45
293.000000 -182.000000 64997.000000 91 60 23
263.000000 -183.000000 64994.000000 107 63 41
264.000000 -183.000000 64995.000000 98 63 33
265.000000 -183.000000 64996.000000 90 63 32
266.000000 -183.000000 64996.000000 85 67 32
267.000000 -183.000000 64997.000000 80 72 26
268.000000 -183.000000 64997.000000 76 67 21
269.000000 -183.000000 64998.000000 71 63 27
270.000000 -183.000000 64999.000000 69 62 34
271.000000 -183.000000 64999.000000 67 62 59
272.000000 -183.000000 65000.000000 71 62 84
273.000000 -183.000000 65000.000000 75 63 64
274.000000 -183.000000 65000.000000 78 63 44
281.000000 -183.000000 65003.000000 98 95 79
282.000000 -183.000000 65002.000000 103 94 97
283.000000 -183.000000 65002.000000 108 108 90
284.000000 -183.000000 65001.000000 115 109 84
285.000000 -183.000000 65001.000000 123 123 98
286.000000 -183.000000 65001.000000 127 123 112
287.000000 -183.000000 65000.000000 131 123 126
288.000000 -183.000000 65000.000000 135 124 141
289.000000 -183.000000 65000.000000 140 135 126
290.000000 -183.000000 65000.000000 147 144 112
291.000000 -183.000000 65000.000000 155 145 81
265.000000 -184.000000 64996.000000 88 65 30
266.000000 -184.000000 64996.000000 83 71 25
267.000000 -184.000000 64997.000000 79 71 19
268.000000 -184.000000 64997.000000 75 72 13
269.000000 -184.000000 64999.000000 71 57 21
270.000000 -184.000000 64999.000000 69 59 29
271.000000 -184.000000 64999.000000 67 61 46
283.000000 -184.000000 65001.000000 106 99 61
284.000000 -184.000000 65001.000000 114 107 71
285.000000 -184.000000 65000.000000 123 118 86
286.000000 -184.000000 65000.000000 127 130 102
287.000000 -184.000000 65000.000000 131 125 114
288.000000 -184.000000 64999.000000 134 120 126
289.000000 -184.000000 64999.000000 138 125 114
290.000000 -184.000000 64998.000000 145 148 101
291.000000 -184.000000 64997.000000 153 137 71
292.000000 -184.000000 64997.000000 126 130 42
284.000000 -185.000000 65001.000000 83 86 58
285.000000 -185.000000 65000.000000 88 96 75
286.000000 -185.000000 65000.000000 91 87 92
287.000000 -185.000000 65000.000000 94 79 102
288.000000 -185.000000 64999.000000 100 97 112
289.000000 -185.000000 65000.000000 106 116 101
290.000000 -185.000000 64999.000000 116 123 91
291.000000 -185.000000 64999.000000 126 130 62
292.000000 -185.000000 64997.000000 115 126 34
285.000000 -186.000000 65000.000000 54 35 39
286.000000 -186.000000 65000.000000 55 38 48
287.000000 -186.000000 65000.000000 57 58 61
288.000000 -186.000000 64999.000000 66 74 74
289.000000 -186.000000 65000.000000 75 86 79
290.000000 -186.000000 65000.000000 87 98 84
291.000000 -186.000000 64999.000000 100 110 74
285.000000 -187.000000 65000.000000 58 41 3
286.000000 -187.000000 65000.000000 55 42 5
287.000000 -187.000000 65000.000000 53 43 21
288.000000 -187.000000 65000.000000 60 45 37
289.000000 -187.000000 65000.000000 68 47 57
290.000000 -187.000000 65000.000000 79 68 77
285.000000 -188.000000 65000.000000 62 45 2
286.000000 -188.000000 65000.000000 55 47 3
287.000000 -188.000000 65000.000000 49 46 16
288.000000 -188.000000 65000.000000 55 45 29
289.000000 -188.000000 65000.000000 62 48 45
287.000000 -189.000000 65000.000000 58 47 11
271.000000 -198.000000 65013.000000 73 58 41
272.000000 -198.000000 65013.000000 73 65 40
273.000000 -198.000000 65013.000000 74 62 36
264.000000 -199.000000 65009.000000 84 69 13
265.000000 -199.000000 65009.000000 88 67 27
269.000000 -199.000000 65013.000000 74 63 49
270.000000 -199.000000 65013.000000 75 66 50
271.000000 -199.000000 65014.000000 76 70 45
272.000000 -199.000000 65014.000000 78 70 40
273.000000 -199.000000 65014.000000 81 71 39
274.000000 -199.000000 65015.000000 78 71 39
275.000000 -199.000000 65016.000000 76 71 36
276.000000 -199.000000 65016.000000 76 69 33
277.000000 -199.000000 65016.000000 77 67 19
278.000000 -199.000000 65016.000000 79 85 6
293.000000 -199.000000 65009.000000 87 78 30
294.000000 -199.000000 65009.000000 86 79 30
295.000000 -199.000000 65009.000000 85 81 17
261.000000 -200.000000 65010.000000 87 72 14
262.000000 -200.000000 65010.000000 83 76 26
263.000000 -200.000000 65009.000000 80 74 18
264.000000 -200.000000 65009.000000 85 73 11
265.000000 -200.000000 65009.000000 91 72 20
267.000000 -200.000000 65013.000000 81 76 38
268.000000 -200.000000 65013.000000 78 82 46
269.000000 -200.000000 65013.000000 76 80 39
270.000000 -200.000000 65014.000000 77 79 32
271.000000 -200.000000 65014.000000 79 86 26
272.000000 -200.000000 65015.000000 83 94 21
273.000000 -200.000000 65015.000000 88 94 21
274.000000 -200.000000 65015.000000 83 95 21
275.000000 -200.000000 65016.000000 78 93 20
276.000000 -200.000000 65017.000000 79 92 18
277.000000 -200.000000 65016.000000 80 95 19
278.000000 -200.000000 65015.000000 82 98 19
279.000000 -200.000000 65015.000000 85 99 19
282.000000 -200.000000 65015.000000 88 113 45
283.000000 -200.000000 65014.000000 91 103 34
284.000000 -200.000000 65014.000000 91 93 23
285.000000 -200.000000 65014.000000 91 97 27
286.000000 -200.000000 65014.000000 94 102 31
287.000000 -200.000000 65014.000000 97 112 39
288.000000 -200.000000 65014.000000 100 122 47
289.000000 -200.000000 65014.000000 103 113 41
291.000000 -200.000000 65012.000000 102 102 32
292.000000 -200.000000 65011.000000 99 99 28
293.000000 -200.000000 65010.000000 97 90 40
294.000000 -200.000000 65011.000000 93 81 51
295.000000 -200.000000 65011.000000 90 79 37
296.000000 -200.000000 65011.000000 86 78 24
260.000000 -201.000000 65010.000000 79 76 2
261.000000 -201.000000 65010.000000 81 80 22
262.000000 -201.000000 65010.000000 78 79 43
263.000000 -201.000000 65010.000000 75 78 26
264.000000 -201.000000 65011.000000 79 78 10
265.000000 -201.000000 65013.000000 83 78 13
266.000000 -201.000000 65013.000000 79 79 17
267.000000 -201.000000 65013.000000 75 80 30
268.000000 -201.000000 65014.000000 74 84 44
269.000000 -201.000000 65014.000000 73 86 29
270.000000 -201.000000 65015.000000 74 91 14
271.000000 -201.000000 65015.000000 75 96 8
272.000000 -201.000000 65015.000000 77 95 2
273.000000 -201.000000 65015.000000 80 97 3
274.000000 -201.000000 65016.000000 77 95 4
275.000000 -201.000000 65017.000000 74 96 4
276.000000 -201.000000 65017.000000 76 98 4
277.000000 -201.000000 65017.000000 79 101 18
278.000000 -201.000000 65016.000000 81 103 33
279.000000 -201.000000 65017.000000 84 108 18
280.000000 -201.000000 65017.000000 85 110 3
281.000000 -201.000000 65017.000000 87 112 21
282.000000 -201.000000 65016.000000 89 113 39
283.000000 -201.000000 65015.000000 92 119 20
284.000000 -201.000000 65015.000000 92 110 1
285.000000 -201.000000 65015.000000 92 101 8
286.000000 -201.000000 65015.000000 95 112 15
287.000000 -201.000000 65015.000000 98 126 18
288.000000 -201.000000 65014.000000 101 125 22
289.000000 -201.000000 65014.000000 104 124 23
290.000000 -201.000000 65013.000000 106 126 25
291.000000 -201.000000 65013.000000 108 128 25
292.000000 -201.000000 65011.000000 105 119 26
293.000000 -201.000000 65010.000000 102 111 49
294.000000 -201.000000 65012.000000 99 99 73
295.000000 -201.000000 65011.000000 96 87 58
296.000000 -201.000000 65011.000000 93 86 44
297.000000 -201.000000 65011.000000 89 86 22
298.000000 -201.000000 65011.000000 84 76 1
260.000000 -202.000000 65010.000000 76 83 2
261.000000 -202.000000 65011.000000 75 83 12
262.000000 -202.000000 65011.000000 73 84 22
263.000000 -202.000000 65011.000000 71 83 15
264.000000 -202.000000 65011.000000 73 83 9
265.000000 -202.000000 65013.000000 76 83 10
266.000000 -202.000000 65013.000000 72 83 12
267.000000 -202.000000 65014.000000 69 85 17
268.000000 -202.000000 65015.000000 69 88 22
269.000000 -202.000000 65015.000000 70 90 15
270.000000 -202.000000 65015.000000 70 92 7
271.000000 -202.000000 65016.000000 71 94 4
272.000000 -202.000000 65016.000000 71 95 1
273.000000 -202.000000 65016.000000 72 95 2
274.000000 -202.000000 65017.000000 71 95 2
275.000000 -202.000000 65017.000000 71 96 2
276.000000 -202.000000 65017.000000 74 98 2
277.000000 -202.000000 65017.000000 78 100 9
278.000000 -202.000000 65017.000000 81 105 17
279.000000 -202.000000 65017.000000 84 108 9
280.000000 -202.000000 65017.000000 86 112 2
281.000000 -202.000000 65017.000000 88 112 11
282.000000 -202.000000 65017.000000 91 113 20
283.000000 -202.000000 65017.000000 94 119 11
284.000000 -202.000000 65017.000000 94 124 2
285.000000 -202.000000 65017.000000 94 123 10
286.000000 -202.000000 65017.000000 97 123 19
287.000000 -202.000000 65017.000000 100 127 19
288.000000 -202.000000 65015.000000 102 127 18
289.000000 -202.000000 65015.000000 105 129 22
290.000000 -202.000000 65014.000000 109 142 26
291.000000 -202.000000 65013.000000 114 141 21
292.000000 -202.000000 65013.000000 111 140 15
293.000000 -202.000000 65013.000000 108 138 27
294.000000 -202.000000 65013.000000 105 136 38
295.000000 -202.000000 65012.000000 103 128 31
296.000000 -202.000000 65012.000000 99 121 23
297.000000 -202.000000 65012.000000 96 108 12
298.000000 -202.000000 65011.000000 91 95 1
259.000000 -203.000000 65010.000000 70 78 1
260.000000 -203.000000 65010.000000 69 83 2
261.000000 -203.000000 65011.000000 68 85 2
262.000000 -203.000000 65012.000000 67 83 2
263.000000 -203.000000 65012.000000 66 83 5
264.000000 -203.000000 65013.000000 68 83 8
265.000000 -203.000000 65013.000000 70 84 7
266.000000 -203.000000 65014.000000 67 85 7
267.000000 -203.000000 65014.000000 65 87 4
268.000000 -203.000000 65015.000000 66 89 1
269.000000 -203.000000 65015.000000 68 94 1
270.000000 -203.000000 65016.000000 69 93 1
271.000000 -203.000000 65017.000000 71 93 1
272.000000 -203.000000 65017.000000 72 95 1
273.000000 -203.000000 65017.000000 73 96 1
274.000000 -203.000000 65017.000000 71 96 1
275.000000 -203.000000 65017.000000 70 96 1
276.000000 -203.000000 65018.000000 73 98 1
277.000000 -203.000000 65017.000000 76 100 1
278.000000 -203.000000 65017.000000 80 108 1
279.000000 -203.000000 65017.000000 84 109 1
280.000000 -203.000000 65017.000000 86 111 1
281.000000 -203.000000 65017.000000 89 113 1
282.000000 -203.000000 65016.000000 93 112 2
283.000000 -203.000000 65015.000000 97 119 2
284.000000 -203.000000 65017.000000 95 121 3
285.000000 -203.000000 65016.000000 94 125 13
286.000000 -203.000000 65017.000000 96 122 24
287.000000 -203.000000 65015.000000 99 128 19
288.000000 -203.000000 65015.000000 102 131 15
289.000000 -203.000000 65015.000000 106 135 21
290.000000 -203.000000 65014.000000 111 144 28
291.000000 -203.000000 65014.000000 116 145 16
292.000000 -203.000000 65013.000000 114 144 5
293.000000 -203.000000 65013.000000 112 144 4
294.000000 -203.000000 65013.000000 109 138 4
295.000000 -203.000000 65012.000000 106 138 3
296.000000 -203.000000 65012.000000 102 129 3
297.000000 -203.000000 65012.000000 98 120 2
298.000000 -203.000000 65012.000000 94 116 1
259.000000 -204.000000 65010.000000 62 76 1
260.000000 -204.000000 65010.000000 61 84 1
261.000000 -204.000000 65011.000000 61 83 1
262.000000 -204.000000 65013.000000 61 83 1
263.000000 -204.000000 65013.000000 62 82 3
264.000000 -204.000000 65013.000000 63 85 4
265.000000 -204.000000 65017.000000 64 85 5
266.000000 -204.000000 65017.000000 63 86 7
267.000000 -204.000000 65017.000000 62 85 4
268.000000 -204.000000 65018.000000 64 91 2
269.000000 -204.000000 65017.000000 66 92 1
270.000000 -204.000000 65017.000000 68 93 1
271.000000 -204.000000 65017.000000 71 93 1
272.000000 -204.000000 65018.000000 72 95 1
273.000000 -204.000000 65019.000000 74 96 1
274.000000 -204.000000 65019.000000 71 97 1
275.000000 -204.000000 65019.000000 69 94 1
276.000000 -204.000000 65018.000000 71 93 1
277.000000 -204.000000 65018.000000 74 95 1
278.000000 -204.000000 65018.000000 79 111 1
279.000000 -204.000000 65018.000000 84 110 1
280.000000 -204.000000 65018.000000 87 105 1
281.000000 -204.000000 65017.000000 90 110 7
282.000000 -204.000000 65017.000000 95 112 14
283.000000 -204.000000 65017.000000 100 116 8
284.000000 -204.000000 65017.000000 97 119 2
285.000000 -204.000000 65017.000000 95 120 7
286.000000 -204.000000 65017.000000 96 122 13
287.000000 -204.000000 65016.000000 98 124 24
288.000000 -204.000000 65016.000000 102 134 36
289.000000 -204.000000 65015.000000 107 132 27
290.000000 -204.000000 65015.000000 112 147 19
291.000000 -204.000000 65014.000000 118 146 19
292.000000 -204.000000 65013.000000 117 142 19
293.000000 -204.000000 65013.000000 116 141 22
294.000000 -204.000000 65013.000000 113 141 24
295.000000 -204.000000 65012.000000 110 138 14
296.000000 -204.000000 65012.000000 105 140 5
297.000000 -204.000000 65012.000000 101 130 3
298.000000 -204.000000 65012.000000 97 128 1
299.000000 -204.000000 65012.000000 93 120 1
300.000000 -204.000000 65012.000000 85 113 1
256.000000 -205.000000 65008.000000 47 65 1
257.000000 -205.000000 65008.000000 66 71 1
258.000000 -205.000000 65008.000000 63 73 1
259.000000 -205.000000 65008.000000 60 74 1
260.000000 -205.000000 65011.000000 60 79 1
261.000000 -205.000000 65012.000000 60 80 1
262.000000 -205.000000 65013.000000 60 81 1
263.000000 -205.000000 65013.000000 60 82 1
264.000000 -205.000000 65017.000000 61 84 1
265.000000 -205.000000 65017.000000 62 85 4
266.000000 -205.000000 65017.000000 58 84 7
267.000000 -205.000000 65018.000000 54 83 5
268.000000 -205.000000 65019.000000 59 86 4
269.000000 -205.000000 65018.000000 64 89 2
270.000000 -205.000000 65019.000000 66 91 1
271.000000 -205.000000 65018.000000 68 93 1
272.000000 -205.000000 65019.000000 70 94 1
273.000000 -205.000000 65019.000000 72 96 1
274.000000 -205.000000 65020.000000 69 94 1
275.000000 -205.000000 65019.000000 66 93 1
276.000000 -205.000000 65019.000000 70 91 2
277.000000 -205.000000 65019.000000 74 90 1
278.000000 -205.000000 65019.000000 78 104 1
279.000000 -205.000000 65019.000000 82 111 1
280.000000 -205.000000 65019.000000 85 106 1
281.000000 -205.000000 65019.000000 88 108 13
282.000000 -205.000000 65017.000000 92 113 26
283.000000 -205.000000 65017.000000 96 114 13
284.000000 -205.000000 65018.000000 95 114 1
285.000000 -205.000000 65017.000000 94 115 2
286.000000 -205.000000 65017.000000 96 118 3
287.000000 -205.000000 65017.000000 97 120 30
288.000000 -205.000000 65016.000000 102 124 57
289.000000 -205.000000 65016.000000 108 129 33
290.000000 -205.000000 65015.000000 117 152 10
291.000000 -205.000000 65015.000000 127 148 22
292.000000 -205.000000 65013.000000 122 143 34
293.000000 -205.000000 65013.000000 118 140 39
294.000000 -205.000000 65013.000000 114 139 45
295.000000 -205.000000 65013.000000 111 138 26
296.000000 -205.000000 65012.000000 107 139 7
297.000000 -205.000000 65012.000000 103 132 4
298.000000 -205.000000 65012.000000 99 132 1
299.000000 -205.000000 65012.000000 95 132 1
300.000000 -205.000000 65012.000000 89 122 2
254.000000 -206.000000 65006.000000 24 47 2
255.000000 -206.000000 65007.000000 41 59 2
256.000000 -206.000000 65008.000000 50 72 1
257.000000 -206.000000 65008.000000 59 72 1
258.000000 -206.000000 65008.000000 59 72 1
259.000000 -206.000000 65010.000000 59 75 1
260.000000 -206.000000 65011.000000 59 78 1
261.000000 -206.000000 65013.000000 59 79 1
262.000000 -206.000000 65013.000000 59 80 1
263.000000 -206.000000 65013.000000 59 81 1
264.000000 -206.000000 65017.000000 59 83 1
265.000000 -206.000000 65017.000000 60 83 7
266.000000 -206.000000 65018.000000 53 83 14
267.000000 -206.000000 65019.000000 47 83 8
268.000000 -206.000000 65019.000000 54 83 2
269.000000 -206.000000 65019.000000 62 87 1
270.000000 -206.000000 65020.000000 63 90 1
271.000000 -206.000000 65020.000000 65 91 1
272.000000 -206.000000 65020.000000 67 92 1
273.000000 -206.000000 65020.000000 70 92 1
274.000000 -206.000000 65020.000000 67 92 1
275.000000 -206.000000 65020.000000 64 91 1
276.000000 -206.000000 65020.000000 69 90 1
277.000000 -206.000000 65020.000000 74 91 1
278.000000 -206.000000 65020.000000 77 98 1
279.000000 -206.000000 65020.000000 80 102 1
280.000000 -206.000000 65020.000000 83 107 1
281.000000 -206.000000 65020.000000 87 108 7
282.000000 -206.000000 65019.000000 89 114 13
283.000000 -206.000000 65019.000000 92 114 8
284.000000 -206.000000 65019.000000 93 114 3
285.000000 -206.000000 65018.000000 94 114 5
286.000000 -206.000000 65018.000000 95 117 7
287.000000 -206.000000 65017.000000 97 115 29
288.000000 -206.000000 65017.000000 103 113 52
289.000000 -206.000000 65017.000000 109 133 29
290.000000 -206.000000 65017.000000 122 158 7
291.000000 -206.000000 65016.000000 136 150 37
292.000000 -206.000000 65014.000000 128 145 67
293.000000 -206.000000 65013.000000 121 140 56
294.000000 -206.000000 65013.000000 116 136 45
295.000000 -206.000000 65013.000000 112 137 34
296.000000 -206.000000 65013.000000 108 138 24
297.000000 -206.000000 65012.000000 105 134 16
298.000000 -206.000000 65012.000000 101 131 8
253.000000 -207.000000 65006.000000 16 1 1
254.000000 -207.000000 65006.000000 37 56 1
255.000000 -207.000000 65007.000000 59 70 1
256.000000 -207.000000 65008.000000 58 76 2
257.000000 -207.000000 65009.000000 57 80 1
258.000000 -207.000000 65011.000000 55 78 1
259.000000 -207.000000 65012.000000 54 76 1
260.000000 -207.000000 65013.000000 55 77 1
261.000000 -207.000000 65013.000000 57 76 1
262.000000 -207.000000 65013.000000 56 79 1
263.000000 -207.000000 65014.000000 56 80 1
264.000000 -207.000000 65017.000000 57 80 1
265.000000 -207.000000 65017.000000 58 81 11
266.000000 -207.000000 65017.000000 58 80 21
267.000000 -207.000000 65019.000000 59 79 11
268.000000 -207.000000 65019.000000 60 82 1
269.000000 -207.000000 65019.000000 62 86 1
270.000000 -207.000000 65020.000000 63 86 1
271.000000 -207.000000 65020.000000 64 86 1
272.000000 -207.000000 65020.000000 66 87 1
273.000000 -207.000000 65020.000000 67 88 1
274.000000 -207.000000 65020.000000 65 88 1
275.000000 -207.000000 65020.000000 63 88 1
276.000000 -207.000000 65021.000000 68 90 1
277.000000 -207.000000 65020.000000 73 93 1
278.000000 -207.000000 65021.000000 76 95 1
279.000000 -207.000000 65021.000000 79 98 1
280.000000 -207.000000 65020.000000 81 105 1
281.000000 -207.000000 65020.000000 84 109 1
282.000000 -207.000000 65020.000000 87 110 1
283.000000 -207.000000 65020.000000 90 111 3
284.000000 -207.000000 65020.000000 91 111 5
285.000000 -207.000000 65019.000000 93 112 8
286.000000 -207.000000 65019.000000 94 112 12
287.000000 -207.000000 65019.000000 96 112 29
288.000000 -207.000000 65018.000000 101 114 47
289.000000 -207.000000 65018.000000 106 138 25
290.000000 -207.000000 65017.000000 118 145 4
291.000000 -207.000000 65017.000000 130 152 52
292.000000 -207.000000 65015.000000 126 146 100
293.000000 -207.000000 65014.000000 122 140 73
294.000000 -207.000000 65014.000000 115 136 46
295.000000 -207.000000 65013.000000 109 136 43
296.000000 -207.000000 65013.000000 106 139 41
297.000000 -207.000000 65012.000000 104 142 28
298.000000 -207.000000 65012.000000 101 131 15
299.000000 -207.000000 65011.000000 99 129 8
300.000000 -207.000000 65011.000000 95 129 1
252.000000 -208.000000 65007.000000 13 4 1
253.000000 -208.000000 65006.000000 25 25 1
254.000000 -208.000000 65007.000000 51 65 2
255.000000 -208.000000 65008.000000 77 71 1
256.000000 -208.000000 65009.000000 66 82 1
257.000000 -208.000000 65011.000000 56 81 1
258.000000 -208.000000 65013.000000 52 80 1
259.000000 -208.000000 65013.000000 49 79 8
260.000000 -208.000000 65013.000000 52 78 15
261.000000 -208.000000 65013.000000 55 78 8
262.000000 -208.000000 65014.000000 54 79 1
263.000000 -208.000000 65017.000000 54 78 4
264.000000 -208.000000 65017.000000 55 78 7
265.000000 -208.000000 65018.000000 56 77 9
266.000000 -208.000000 65019.000000 63 77 11
267.000000 -208.000000 65020.000000 71 80 6
268.000000 -208.000000 65020.000000 67 82 1
269.000000 -208.000000 65020.000000 63 82 1
270.000000 -208.000000 65020.000000 63 83 1
271.000000 -208.000000 65020.000000 64 84 7
272.000000 -208.000000 65020.000000 64 86 13
273.000000 -208.000000 65021.000000 65 86 7
274.000000 -208.000000 65021.000000 63 85 1
275.000000 -208.000000 65021.000000 62 88 1
276.000000 -208.000000 65022.000000 67 90 1
277.000000 -208.000000 65022.000000 73 91 1
278.000000 -208.000000 65022.000000 75 92 1
279.000000 -208.000000 65021.000000 78 98 1
280.000000 -208.000000 65020.000000 80 103 1
281.000000 -208.000000 65020.000000 82 107 1
282.000000 -208.000000 65020.000000 85 108 2
283.000000 -208.000000 65020.000000 88 109 14
284.000000 -208.000000 65020.000000 90 111 27
285.000000 -208.000000 65020.000000 93 112 17
286.000000 -208.000000 65020.000000 94 114 6
287.000000 -208.000000 65020.000000 95 112 20
288.000000 -208.000000 65019.000000 99 116 34
289.000000 -208.000000 65019.000000 103 127 28
290.000000 -208.000000 65018.000000 114 139 21
291.000000 -208.000000 65017.000000 125 143 52
292.000000 -208.000000 65016.000000 124 147 82
293.000000 -208.000000 65015.000000 123 138 57
294.000000 -208.000000 65014.000000 115 137 31
295.000000 -208.000000 65013.000000 107 132 30
296.000000 -208.000000 65013.000000 105 129 28
297.000000 -208.000000 65013.000000 103 130 18
298.000000 -208.000000 65012.000000 101 132 8
299.000000 -208.000000 65011.000000 100 129 5
300.000000 -208.000000 65011.000000 97 126 2
252.000000 -209.000000 65007.000000 19 27 1
253.000000 -209.000000 65006.000000 33 50 2
254.000000 -209.000000 65007.000000 49 72 3
255.000000 -209.000000 65008.000000 65 73 2
256.000000 -209.000000 65009.000000 57 75 1
257.000000 -209.000000 65013.000000 49 77 1
258.000000 -209.000000 65013.000000 44 73 1
259.000000 -209.000000 65013.000000 39 70 15
260.000000 -209.000000 65014.000000 40 74 30
261.000000 -209.000000 65014.000000 42 78 15
262.000000 -209.000000 65014.000000 45 73 1
263.000000 -209.000000 65017.000000 49 68 7
264.000000 -209.000000 65018.000000 51 75 14
265.000000 -209.000000 65018.000000 54 76 7
266.000000 -209.000000 65019.000000 59 77 1
267.000000 -209.000000 65020.000000 63 81 1
268.000000 -209.000000 65020.000000 61 81 1
269.000000 -209.000000 65020.000000 58 84 1
270.000000 -209.000000 65020.000000 62 83 1
271.000000 -209.000000 65020.000000 66 83 13
272.000000 -209.000000 65021.000000 64 85 26
273.000000 -209.000000 65022.000000 62 87 13
274.000000 -209.000000 65021.000000 60 84 1
275.000000 -209.000000 65022.000000 58 89 1
276.000000 -209.000000 65023.000000 64 89 1
277.000000 -209.000000 65023.000000 69 91 1
278.000000 -209.000000 65023.000000 73 91 1
279.000000 -209.000000 65023.000000 76 98 1
280.000000 -209.000000 65022.000000 79 101 1
281.000000 -209.000000 65021.000000 82 105 2
282.000000 -209.000000 65021.000000 84 104 3
283.000000 -209.000000 65020.000000 87 104 26
284.000000 -209.000000 65020.000000 89 109 50
285.000000 -209.000000 65020.000000 91 116 25
286.000000 -209.000000 65020.000000 91 113 1
287.000000 -209.000000 65020.000000 92 112 11
288.000000 -209.000000 65019.000000 92 111 22
289.000000 -209.000000 65019.000000 93 111 30
290.000000 -209.000000 65019.000000 98 125 39
291.000000 -209.000000 65018.000000 103 139 52
292.000000 -209.000000 65017.000000 103 137 65
293.000000 -209.000000 65015.000000 103 136 41
294.000000 -209.000000 65014.000000 100 132 17
295.000000 -209.000000 65013.000000 98 128 16
296.000000 -209.000000 65013.000000 97 128 16
297.000000 -209.000000 65013.000000 97 129 8
298.000000 -209.000000 65013.000000 97 129 1
299.000000 -209.000000 65013.000000 97 129 2
300.000000 -209.000000 65011.000000 95 124 4
252.000000 -210.000000 65007.000000 26 51 1
253.000000 -210.000000 65006.000000 41 58 12
254.000000 -210.000000 65007.000000 47 80 24
255.000000 -210.000000 65007.000000 54 69 12
256.000000 -210.000000 65013.000000 48 67 1
257.000000 -210.000000 65013.000000 42 65 1
258.000000 -210.000000 65013.000000 36 64 1
259.000000 -210.000000 65014.000000 30 54 9
260.000000 -210.000000 65016.000000 29 45 18
261.000000 -210.000000 65016.000000 29 48 10
262.000000 -210.000000 65017.000000 36 52 2
263.000000 -210.000000 65017.000000 44 68 14
264.000000 -210.000000 65017.000000 48 72 26
265.000000 -210.000000 65018.000000 53 74 13
266.000000 -210.000000 65020.000000 54 78 1
267.000000 -210.000000 65020.000000 56 80 1
268.000000 -210.000000 65020.000000 55 81 1
269.000000 -210.000000 65020.000000 54 81 1
270.000000 -210.000000 65021.000000 61 81 1
271.000000 -210.000000 65021.000000 69 82 7
272.000000 -210.000000 65022.000000 64 85 13
273.000000 -210.000000 65022.000000 59 84 7
274.000000 -210.000000 65023.000000 57 84 1
275.000000 -210.000000 65023.000000 55 86 1
276.000000 -210.000000 65023.000000 60 88 1
277.000000 -210.000000 65023.000000 66 89 1
278.000000 -210.000000 65023.000000 70 91 1
279.000000 -210.000000 65023.000000 75 96 1
280.000000 -210.000000 65023.000000 78 99 1
281.000000 -210.000000 65023.000000 82 101 5
282.000000 -210.000000 65023.000000 84 103 9
283.000000 -210.000000 65022.000000 86 103 17
284.000000 -210.000000 65022.000000 88 107 25
285.000000 -210.000000 65020.000000 90 110 13
286.000000 -210.000000 65020.000000 89 113 1
287.000000 -210.000000 65020.000000 89 110 6
288.000000 -210.000000 65020.000000 86 108 12
289.000000 -210.000000 65020.000000 84 107 16
290.000000 -210.000000 65019.000000 83 106 20
291.000000 -210.000000 65019.000000 82 113 26
292.000000 -210.000000 65017.000000 82 120 33
293.000000 -210.000000 65016.000000 83 114 27
294.000000 -210.000000 65016.000000 86 108 21
295.000000 -210.000000 65015.000000 89 110 21
296.000000 -210.000000 65014.000000 90 113 21
297.000000 -210.000000 65014.000000 92 123 11
298.000000 -210.000000 65013.000000 93 128 1
299.000000 -210.000000 65013.000000 95 125 1
252.000000 -211.000000 65007.000000 28 49 1
253.000000 -211.000000 65007.000000 37 67 23
254.000000 -211.000000 65008.000000 40 66 46
255.000000 -211.000000 65010.000000 43 65 23
256.000000 -211.000000 65012.000000 38 58 1
257.000000 -211.000000 65013.000000 33 51 1
258.000000 -211.000000 65013.000000 25 46 1
259.000000 -211.000000 65014.000000 18 41 4
260.000000 -211.000000 65017.000000 21 36 7
261.000000 -211.000000 65017.000000 25 32 5
262.000000 -211.000000 65017.000000 34 55 4
263.000000 -211.000000 65018.000000 44 69 21
264.000000 -211.000000 65018.000000 48 69 39
265.000000 -211.000000 65019.000000 52 70 20
266.000000 -211.000000 65020.000000 55 75 1
267.000000 -211.000000 65020.000000 59 79 1
268.000000 -211.000000 65020.000000 57 79 1
269.000000 -211.000000 65020.000000 55 79 1
270.000000 -211.000000 65022.000000 58 79 1
271.000000 -211.000000 65022.000000 62 79 1
272.000000 -211.000000 65022.000000 59 82 1
273.000000 -211.000000 65023.000000 56 82 1
274.000000 -211.000000 65023.000000 55 81 1
275.000000 -211.000000 65023.000000 55 81 1
276.000000 -211.000000 65023.000000 60 87 1
277.000000 -211.000000 65023.000000 65 86 1
278.000000 -211.000000 65023.000000 69 90 1
279.000000 -211.000000 65023.000000 74 95 1
280.000000 -211.000000 65023.000000 78 95 1
281.000000 -211.000000 65023.000000 82 95 8
282.000000 -211.000000 65023.000000 83 100 15
283.000000 -211.000000 65023.000000 85 103 8
284.000000 -211.000000 65022.000000 86 106 1
285.000000 -211.000000 65021.000000 88 108 1
286.000000 -211.000000 65021.000000 88 107 2
287.000000 -211.000000 65020.000000 89 107 2
288.000000 -211.000000 65020.000000 87 107 2
289.000000 -211.000000 65020.000000 86 102 1
290.000000 -211.000000 65020.000000 87 105 1
291.000000 -211.000000 65018.000000 89 109 1
292.000000 -211.000000 65017.000000 86 109 1
293.000000 -211.000000 65017.000000 83 110 13
294.000000 -211.000000 65016.000000 83 108 26
295.000000 -211.000000 65016.000000 83 108 26
296.000000 -211.000000 65015.000000 85 111 26
297.000000 -211.000000 65015.000000 87 117 13
298.000000 -211.000000 65013.000000 88 119 1
299.000000 -211.000000 65013.000000 90 121 1
300.000000 -211.000000 65013.000000 87 118 1
252.000000 -212.000000 65008.000000 30 47 1
253.000000 -212.000000 65008.000000 34 51 12
254.000000 -212.000000 65009.000000 33 56 24
255.000000 -212.000000 65011.000000 32 53 12
256.000000 -212.000000 65013.000000 28 50 1
257.000000 -212.000000 65013.000000 24 46 1
258.000000 -212.000000 65013.000000 15 42 1
259.000000 -212.000000 65013.000000 6 37 2
260.000000 -212.000000 65017.000000 13 33 4
261.000000 -212.000000 65017.000000 21 39 3
262.000000 -212.000000 65017.000000 32 59 2
263.000000 -212.000000 65017.000000 44 67 13
264.000000 -212.000000 65019.000000 48 67 24
265.000000 -212.000000 65020.000000 52 69 12
266.000000 -212.000000 65020.000000 57 73 1
267.000000 -212.000000 65020.000000 62 74 1
268.000000 -212.000000 65020.000000 59 76 1
269.000000 -212.000000 65021.000000 56 78 1
270.000000 -212.000000 65022.000000 56 80 1
271.000000 -212.000000 65021.000000 56 79 1
272.000000 -212.000000 65022.000000 54 82 1
273.000000 -212.000000 65023.000000 53 82 1
274.000000 -212.000000 65023.000000 54 82 1
275.000000 -212.000000 65023.000000 55 79 10
276.000000 -212.000000 65023.000000 60 87 18
277.000000 -212.000000 65023.000000 65 88 9
278.000000 -212.000000 65023.000000 69 89 1
279.000000 -212.000000 65024.000000 73 92 1
280.000000 -212.000000 65023.000000 77 95 1
281.000000 -212.000000 65023.000000 82 94 4
282.000000 -212.000000 65023.000000 83 97 8
283.000000 -212.000000 65023.000000 84 102 4
284.000000 -212.000000 65023.000000 85 105 1
285.000000 -212.000000 65022.000000 87 104 1
286.000000 -212.000000 65021.000000 88 104 1
287.000000 -212.000000 65021.000000 89 105 1
288.000000 -212.000000 65020.000000 88 106 2
289.000000 -212.000000 65020.000000 88 105 1
290.000000 -212.000000 65020.000000 92 105 1
291.000000 -212.000000 65019.000000 97 106 1
292.000000 -212.000000 65018.000000 90 112 1
293.000000 -212.000000 65017.000000 83 110 7
294.000000 -212.000000 65017.000000 80 109 13
295.000000 -212.000000 65017.000000 77 109 13
296.000000 -212.000000 65016.000000 80 109 13
297.000000 -212.000000 65016.000000 83 109 7
298.000000 -212.000000 65014.000000 84 109 1
299.000000 -212.000000 65014.000000 85 120 1
300.000000 -212.000000 65013.000000 82 94 1
252.000000 -213.000000 65009.000000 32 46 1
253.000000 -213.000000 65009.000000 34 46 1
254.000000 -213.000000 65010.000000 33 46 2
255.000000 -213.000000 65012.000000 33 47 1
256.000000 -213.000000 65013.000000 32 43 1
257.000000 -213.000000 65016.000000 31 39 1
258.000000 -213.000000 65016.000000 26 46 1
259.000000 -213.000000 65017.000000 22 51 1
260.000000 -213.000000 65017.000000 27 49 1
261.000000 -213.000000 65017.000000 32 47 1
262.000000 -213.000000 65018.000000 38 65 1
263.000000 -213.000000 65019.000000 44 66 5
264.000000 -213.000000 65020.000000 46 68 9
265.000000 -213.000000 65022.000000 49 69 5
266.000000 -213.000000 65022.000000 53 71 1
267.000000 -213.000000 65022.000000 57 73 1
268.000000 -213.000000 65022.000000 55 76 1
269.000000 -213.000000 65022.000000 54 77 1
270.000000 -213.000000 65023.000000 53 78 1
271.000000 -213.000000 65023.000000 53 80 1
272.000000 -213.000000 65023.000000 51 81 1
273.000000 -213.000000 65023.000000 50 80 1
274.000000 -213.000000 65023.000000 49 79 2
275.000000 -213.000000 65023.000000 49 78 19
276.000000 -213.000000 65024.000000 54 82 36
277.000000 -213.000000 65025.000000 60 93 18
278.000000 -213.000000 65025.000000 63 87 1
279.000000 -213.000000 65025.000000 67 88 1
280.000000 -213.000000 65025.000000 73 91 1
281.000000 -213.000000 65024.000000 79 94 1
282.000000 -213.000000 65024.000000 80 100 1
283.000000 -213.000000 65023.000000 82 102 1
284.000000 -213.000000 65023.000000 83 102 1
285.000000 -213.000000 65023.000000 84 102 1
286.000000 -213.000000 65022.000000 84 104 1
287.000000 -213.000000 65022.000000 85 103 1
288.000000 -213.000000 65021.000000 85 104 2
289.000000 -213.000000 65021.000000 85 105 1
290.000000 -213.000000 65021.000000 88 104 1
291.000000 -213.000000 65020.000000 90 104 1
292.000000 -213.000000 65019.000000 85 103 1
293.000000 -213.000000 65019.000000 80 102 1
294.000000 -213.000000 65019.000000 77 102 1
295.000000 -213.000000 65017.000000 75 103 1
296.000000 -213.000000 65017.000000 80 112 1
297.000000 -213.000000 65016.000000 86 116 1
298.000000 -213.000000 65015.000000 90 118 1
299.000000 -213.000000 65013.000000 94 120 1
300.000000 -213.000000 65013.000000 88 111 1
301.000000 -213.000000 65013.000000 81 103 4
252.000000 -214.000000 65010.000000 34 44 1
253.000000 -214.000000 65010.000000 35 44 4
254.000000 -214.000000 65013.000000 34 44 7
255.000000 -214.000000 65015.000000 34 43 4
256.000000 -214.000000 65016.000000 36 30 1
257.000000 -214.000000 65017.000000 38 42 1
258.000000 -214.000000 65017.000000 38 54 1
259.000000 -214.000000 65017.000000 38 56 1
260.000000 -214.000000 65018.000000 41 58 1
261.000000 -214.000000 65018.000000 44 64 1
262.000000 -214.000000 65020.000000 44 71 1
263.000000 -214.000000 65020.000000 45 66 7
264.000000 -214.000000 65020.000000 45 69 13
265.000000 -214.000000 65023.000000 46 69 7
266.000000 -214.000000 65021.000000 49 70 1
267.000000 -214.000000 65022.000000 52 73 1
268.000000 -214.000000 65022.000000 52 76 1
269.000000 -214.000000 65022.000000 52 76 1
270.000000 -214.000000 65023.000000 51 77 2
271.000000 -214.000000 65023.000000 51 79 1
272.000000 -214.000000 65023.000000 49 82 1
273.000000 -214.000000 65023.000000 47 78 1
274.000000 -214.000000 65023.000000 45 76 1
275.000000 -214.000000 65023.000000 44 77 10
276.000000 -214.000000 65024.000000 49 78 18
277.000000 -214.000000 65024.000000 55 82 9
278.000000 -214.000000 65024.000000 58 86 1
279.000000 -214.000000 65024.000000 61 87 1
280.000000 -214.000000 65024.000000 68 88 1
281.000000 -214.000000 65025.000000 76 91 1
282.000000 -214.000000 65023.000000 78 104 1
283.000000 -214.000000 65023.000000 80 101 1
284.000000 -214.000000 65023.000000 80 101 1
285.000000 -214.000000 65023.000000 81 102 1
286.000000 -214.000000 65023.000000 81 104 1
287.000000 -214.000000 65022.000000 81 103 1
288.000000 -214.000000 65022.000000 82 103 1
289.000000 -214.000000 65022.000000 83 102 1
290.000000 -214.000000 65021.000000 83 102 1
291.000000 -214.000000 65020.000000 84 101 17
292.000000 -214.000000 65019.000000 80 100 33
293.000000 -214.000000 65019.000000 77 100 18
294.000000 -214.000000 65019.000000 75 100 4
295.000000 -214.000000 65019.000000 73 105 2
296.000000 -214.000000 65017.000000 81 122 1
297.000000 -214.000000 65017.000000 89 116 1
298.000000 -214.000000 65015.000000 96 120 1
299.000000 -214.000000 65014.000000 104 120 6
300.000000 -214.000000 65013.000000 93 123 12
301.000000 -214.000000 65013.000000 83 108 15
302.000000 -214.000000 65011.000000 73 89 18
303.000000 -214.000000 65011.000000 64 87 10
304.000000 -214.000000 65009.000000 65 85 1
305.000000 -214.000000 65008.000000 67 85 1
306.000000 -214.000000 65008.000000 63 85 1
307.000000 -214.000000 65008.000000 59 75 6
252.000000 -215.000000 65012.000000 41 52 1
253.000000 -215.000000 65014.000000 42 51 6
254.000000 -215.000000 65014.000000 42 45 12
255.000000 -215.000000 65016.000000 42 40 6
256.000000 -215.000000 65017.000000 44 54 1
257.000000 -215.000000 65017.000000 46 68 1
258.000000 -215.000000 65017.000000 45 67 1
259.000000 -215.000000 65017.000000 44 66 1
260.000000 -215.000000 65018.000000 47 64 1
261.000000 -215.000000 65019.000000 51 62 1
262.000000 -215.000000 65020.000000 48 64 1
263.000000 -215.000000 65020.000000 45 67 9
264.000000 -215.000000 65020.000000 44 67 18
265.000000 -215.000000 65023.000000 44 68 9
266.000000 -215.000000 65021.000000 48 66 1
267.000000 -215.000000 65022.000000 52 65 1
268.000000 -215.000000 65022.000000 50 69 1
269.000000 -215.000000 65023.000000 48 73 2
270.000000 -215.000000 65023.000000 48 72 4
271.000000 -215.000000 65023.000000 48 72 2
272.000000 -215.000000 65023.000000 46 73 1
273.000000 -215.000000 65023.000000 44 74 1
274.000000 -215.000000 65023.000000 37 72 1
275.000000 -215.000000 65024.000000 29 71 1
276.000000 -215.000000 65025.000000 39 73 1
277.000000 -215.000000 65025.000000 49 76 1
278.000000 -215.000000 65024.000000 52 77 1
279.000000 -215.000000 65025.000000 55 79 1
280.000000 -215.000000 65025.000000 61 84 1
281.000000 -215.000000 65025.000000 67 89 1
282.000000 -215.000000 65024.000000 69 94 2
283.000000 -215.000000 65023.000000 72 99 2
284.000000 -215.000000 65023.000000 72 97 2
285.000000 -215.000000 65023.000000 73 96 1
286.000000 -215.000000 65023.000000 73 95 1
287.000000 -215.000000 65022.000000 74 95 1
288.000000 -215.000000 65022.000000 75 94 1
289.000000 -215.000000 65022.000000 75 94 1
290.000000 -215.000000 65021.000000 77 94 2
291.000000 -215.000000 65020.000000 80 94 34
292.000000 -215.000000 65020.000000 78 97 66
293.000000 -215.000000 65019.000000 76 99 36
294.000000 -215.000000 65020.000000 76 101 7
295.000000 -215.000000 65019.000000 76 107 4
296.000000 -215.000000 65018.000000 82 112 1
297.000000 -215.000000 65018.000000 87 117 1
298.000000 -215.000000 65017.000000 92 120 1
