ply
    format ascii 1.0
    element vertex 10520
    property float x
    property float y
    property float z
    property uchar red
    property uchar green
    property uchar blue
    end_header
274.000000 -245.000000 65026.000000 43 47 1
275.000000 -245.000000 65026.000000 46 28 1
276.000000 -245.000000 65027.000000 47 13 1
277.000000 -245.000000 65026.000000 48 2 1
278.000000 -245.000000 65027.000000 51 3 1
279.000000 -245.000000 65027.000000 54 4 17
280.000000 -245.000000 65027.000000 55 4 34
281.000000 -245.000000 65026.000000 57 4 17
282.000000 -245.000000 65027.000000 55 9 1
283.000000 -245.000000 65028.000000 53 9 1
284.000000 -245.000000 65028.000000 52 8 1
285.000000 -245.000000 65028.000000 51 7 1
286.000000 -245.000000 65028.000000 52 7 1
287.000000 -245.000000 65028.000000 53 7 1
288.000000 -245.000000 65027.000000 55 7 1
289.000000 -245.000000 65027.000000 57 7 1
290.000000 -245.000000 65026.000000 61 8 1
291.000000 -245.000000 65026.000000 65 9 13
292.000000 -245.000000 65024.000000 70 9 25
293.000000 -245.000000 65024.000000 76 10 14
294.000000 -245.000000 65023.000000 79 10 4
295.000000 -245.000000 65023.000000 83 10 25
296.000000 -245.000000 65023.000000 85 15 46
297.000000 -245.000000 65023.000000 88 23 25
298.000000 -245.000000 65021.000000 90 19 5
299.000000 -245.000000 65021.000000 93 16 3
300.000000 -245.000000 65020.000000 88 19 1
301.000000 -245.000000 65019.000000 83 26 1
302.000000 -245.000000 65019.000000 74 41 1
303.000000 -245.000000 65017.000000 66 61 10
304.000000 -245.000000 65017.000000 58 71 19
305.000000 -245.000000 65015.000000 51 77 10
306.000000 -245.000000 65008.000000 45 76 1
307.000000 -245.000000 65007.000000 40 76 1
308.000000 -245.000000 65006.000000 44 78 1
309.000000 -245.000000 65006.000000 48 81 1
310.000000 -245.000000 65005.000000 52 81 2
311.000000 -245.000000 65004.000000 57 77 8
312.000000 -245.000000 65004.000000 56 69 15
313.000000 -245.000000 65003.000000 55 60 9
255.000000 -246.000000 65023.000000 53 61 1
256.000000 -246.000000 65023.000000 49 58 1
257.000000 -246.000000 65023.000000 45 55 2
258.000000 -246.000000 65023.000000 50 52 4
259.000000 -246.000000 65023.000000 56 52 2
260.000000 -246.000000 65024.000000 49 53 1
261.000000 -246.000000 65024.000000 42 51 1
262.000000 -246.000000 65025.000000 39 50 1
263.000000 -246.000000 65025.000000 37 53 1
264.000000 -246.000000 65027.000000 33 53 1
265.000000 -246.000000 65027.000000 30 49 1
266.000000 -246.000000 65027.000000 29 51 1
267.000000 -246.000000 65027.000000 28 53 1
268.000000 -246.000000 65027.000000 30 55 1
269.000000 -246.000000 65027.000000 32 52 1
270.000000 -246.000000 65027.000000 40 49 1
271.000000 -246.000000 65027.000000 49 50 3
272.000000 -246.000000 65026.000000 45 52 5
273.000000 -246.000000 65026.000000 41 54 3
274.000000 -246.000000 65026.000000 42 49 1
275.000000 -246.000000 65026.000000 44 36 1
276.000000 -246.000000 65026.000000 46 12 1
277.000000 -246.000000 65026.000000 49 7 1
278.000000 -246.000000 65027.000000 51 3 1
279.000000 -246.000000 65026.000000 54 4 9
280.000000 -246.000000 65026.000000 52 7 17
281.000000 -246.000000 65027.000000 51 6 9
282.000000 -246.000000 65027.000000 51 9 1
283.000000 -246.000000 65028.000000 51 7 1
284.000000 -246.000000 65027.000000 50 5 1
285.000000 -246.000000 65027.000000 50 7 1
286.000000 -246.000000 65027.000000 50 3 1
287.000000 -246.000000 65028.000000 51 2 1
288.000000 -246.000000 65027.000000 53 1 1
289.000000 -246.000000 65026.000000 55 2 1
290.000000 -246.000000 65026.000000 58 3 1
291.000000 -246.000000 65026.000000 61 3 7
292.000000 -246.000000 65024.000000 67 4 14
293.000000 -246.000000 65023.000000 74 3 9
294.000000 -246.000000 65023.000000 78 3 5
295.000000 -246.000000 65023.000000 82 13 14
296.000000 -246.000000 65023.000000 85 21 24
297.000000 -246.000000 65022.000000 89 24 13
298.000000 -246.000000 65021.000000 93 25 3
299.000000 -246.000000 65020.000000 97 15 2
300.000000 -246.000000 65020.000000 90 17 1
301.000000 -246.000000 65018.000000 84 25 1
302.000000 -246.000000 65017.000000 76 41 1
303.000000 -246.000000 65017.000000 68 57 5
304.000000 -246.000000 65017.000000 60 74 10
305.000000 -246.000000 65008.000000 52 78 5
306.000000 -246.000000 65008.000000 47 82 1
307.000000 -246.000000 65008.000000 42 82 1
308.000000 -246.000000 65007.000000 46 83 1
309.000000 -246.000000 65005.000000 50 83 1
310.000000 -246.000000 65005.000000 52 83 1
311.000000 -246.000000 65004.000000 55 77 14
312.000000 -246.000000 65004.000000 56 68 28
313.000000 -246.000000 65003.000000 58 59 16
255.000000 -247.000000 65022.000000 52 63 1
256.000000 -247.000000 65023.000000 48 59 1
257.000000 -247.000000 65023.000000 45 58 4
258.000000 -247.000000 65023.000000 46 58 7
259.000000 -247.000000 65023.000000 48 59 4
260.000000 -247.000000 65024.000000 44 57 1
261.000000 -247.000000 65024.000000 40 56 1
262.000000 -247.000000 65025.000000 37 54 1
263.000000 -247.000000 65025.000000 35 53 1
264.000000 -247.000000 65026.000000 34 52 1
265.000000 -247.000000 65026.000000 34 50 1
266.000000 -247.000000 65028.000000 30 46 1
267.000000 -247.000000 65028.000000 27 42 1
268.000000 -247.000000 65028.000000 29 44 1
269.000000 -247.000000 65026.000000 31 47 1
270.000000 -247.000000 65026.000000 37 48 1
271.000000 -247.000000 65026.000000 43 47 5
272.000000 -247.000000 65026.000000 42 53 9
273.000000 -247.000000 65026.000000 41 54 5
274.000000 -247.000000 65026.000000 39 50 1
275.000000 -247.000000 65026.000000 38 45 1
276.000000 -247.000000 65026.000000 46 18 1
277.000000 -247.000000 65026.000000 53 11 1
278.000000 -247.000000 65027.000000 53 7 1
279.000000 -247.000000 65026.000000 53 4 1
280.000000 -247.000000 65026.000000 54 6 1
281.000000 -247.000000 65026.000000 55 6 1
282.000000 -247.000000 65027.000000 54 6 1
283.000000 -247.000000 65027.000000 53 6 1
284.000000 -247.000000 65027.000000 50 7 1
285.000000 -247.000000 65028.000000 47 8 1
286.000000 -247.000000 65027.000000 49 5 1
287.000000 -247.000000 65027.000000 52 2 1
288.000000 -247.000000 65027.000000 54 3 1
289.000000 -247.000000 65026.000000 56 4 1
290.000000 -247.000000 65026.000000 60 8 1
291.000000 -247.000000 65026.000000 64 12 2
292.000000 -247.000000 65025.000000 69 8 3
293.000000 -247.000000 65024.000000 75 4 4
294.000000 -247.000000 65023.000000 79 10 6
295.000000 -247.000000 65023.000000 83 16 4
296.000000 -247.000000 65023.000000 86 24 2
297.000000 -247.000000 65022.000000 89 25 1
298.000000 -247.000000 65021.000000 91 23 1
299.000000 -247.000000 65020.000000 94 14 1
300.000000 -247.000000 65019.000000 88 16 1
301.000000 -247.000000 65018.000000 82 24 1
302.000000 -247.000000 65016.000000 74 41 1
303.000000 -247.000000 65017.000000 67 54 1
304.000000 -247.000000 65014.000000 58 71 1
305.000000 -247.000000 65010.000000 49 79 1
306.000000 -247.000000 65008.000000 46 79 1
307.000000 -247.000000 65008.000000 43 80 1
308.000000 -247.000000 65007.000000 46 80 1
309.000000 -247.000000 65006.000000 49 80 1
310.000000 -247.000000 65006.000000 51 78 1
311.000000 -247.000000 65004.000000 54 77 21
312.000000 -247.000000 65004.000000 54 67 41
255.000000 -248.000000 65022.000000 51 66 1
256.000000 -248.000000 65023.000000 48 60 1
257.000000 -248.000000 65023.000000 45 59 2
258.000000 -248.000000 65023.000000 43 59 4
259.000000 -248.000000 65024.000000 41 58 2
260.000000 -248.000000 65024.000000 39 57 1
261.000000 -248.000000 65025.000000 38 56 1
262.000000 -248.000000 65026.000000 36 59 1
263.000000 -248.000000 65026.000000 34 53 1
264.000000 -248.000000 65026.000000 36 52 1
265.000000 -248.000000 65026.000000 38 48 1
266.000000 -248.000000 65026.000000 32 42 1
267.000000 -248.000000 65026.000000 26 41 1
268.000000 -248.000000 65027.000000 28 41 1
269.000000 -248.000000 65026.000000 30 48 1
270.000000 -248.000000 65026.000000 34 49 1
271.000000 -248.000000 65026.000000 38 51 3
272.000000 -248.000000 65026.000000 39 54 5
273.000000 -248.000000 65026.000000 41 54 3
274.000000 -248.000000 65026.000000 37 52 1
275.000000 -248.000000 65026.000000 33 40 1
276.000000 -248.000000 65026.000000 45 25 1
277.000000 -248.000000 65026.000000 58 13 1
278.000000 -248.000000 65027.000000 55 13 1
279.000000 -248.000000 65026.000000 53 5 6
280.000000 -248.000000 65026.000000 56 6 11
281.000000 -248.000000 65027.000000 60 6 6
282.000000 -248.000000 65027.000000 57 7 1
283.000000 -248.000000 65027.000000 55 9 1
284.000000 -248.000000 65027.000000 50 16 1
285.000000 -248.000000 65027.000000 45 14 1
286.000000 -248.000000 65027.000000 49 12 1
287.000000 -248.000000 65027.000000 53 4 2
288.000000 -248.000000 65027.000000 55 6 3
289.000000 -248.000000 65026.000000 58 4 2
290.000000 -248.000000 65026.000000 62 13 1
291.000000 -248.000000 65026.000000 67 11 4
292.000000 -248.000000 65025.000000 72 23 7
293.000000 -248.000000 65024.000000 77 21 5
294.000000 -248.000000 65023.000000 81 19 3
295.000000 -248.000000 65023.000000 85 23 2
296.000000 -248.000000 65023.000000 87 27 1
297.000000 -248.000000 65022.000000 89 23 1
298.000000 -248.000000 65021.000000 90 21 1
299.000000 -248.000000 65020.000000 92 18 1
300.000000 -248.000000 65019.000000 86 16 1
301.000000 -248.000000 65018.000000 81 30 1
302.000000 -248.000000 65016.000000 73 41 1
303.000000 -248.000000 65017.000000 66 58 1
304.000000 -248.000000 65014.000000 56 69 1
305.000000 -248.000000 65012.000000 47 78 1
306.000000 -248.000000 65009.000000 45 77 1
307.000000 -248.000000 65008.000000 44 76 1
308.000000 -248.000000 65007.000000 46 76 1
309.000000 -248.000000 65006.000000 48 77 1
310.000000 -248.000000 65006.000000 50 78 1
311.000000 -248.000000 65004.000000 53 77 11
312.000000 -248.000000 65004.000000 52 66 22
256.000000 -249.000000 65023.000000 48 67 1
257.000000 -249.000000 65023.000000 45 66 1
258.000000 -249.000000 65024.000000 43 64 1
259.000000 -249.000000 65025.000000 41 62 1
260.000000 -249.000000 65025.000000 40 57 1
261.000000 -249.000000 65026.000000 39 56 1
262.000000 -249.000000 65026.000000 36 55 1
263.000000 -249.000000 65026.000000 33 54 1
264.000000 -249.000000 65026.000000 34 50 1
265.000000 -249.000000 65027.000000 35 46 1
266.000000 -249.000000 65027.000000 30 46 1
267.000000 -249.000000 65026.000000 26 46 1
268.000000 -249.000000 65026.000000 28 48 1
269.000000 -249.000000 65026.000000 30 50 1
270.000000 -249.000000 65026.000000 36 52 1
271.000000 -249.000000 65026.000000 41 55 1
272.000000 -249.000000 65026.000000 42 55 1
273.000000 -249.000000 65026.000000 42 55 1
274.000000 -249.000000 65026.000000 40 49 1
275.000000 -249.000000 65026.000000 37 35 1
276.000000 -249.000000 65026.000000 45 24 1
277.000000 -249.000000 65026.000000 53 15 1
278.000000 -249.000000 65026.000000 51 11 1
279.000000 -249.000000 65026.000000 50 7 11
280.000000 -249.000000 65026.000000 53 6 21
281.000000 -249.000000 65027.000000 57 9 11
282.000000 -249.000000 65026.000000 55 7 1
283.000000 -249.000000 65027.000000 54 12 1
284.000000 -249.000000 65027.000000 53 12 1
285.000000 -249.000000 65027.000000 53 13 1
286.000000 -249.000000 65027.000000 52 10 1
287.000000 -249.000000 65027.000000 51 7 3
288.000000 -249.000000 65027.000000 54 5 6
289.000000 -249.000000 65026.000000 56 5 3
290.000000 -249.000000 65026.000000 60 7 1
291.000000 -249.000000 65026.000000 65 10 6
292.000000 -249.000000 65025.000000 70 14 11
293.000000 -249.000000 65024.000000 75 19 6
294.000000 -249.000000 65023.000000 79 19 1
295.000000 -249.000000 65023.000000 83 25 1
296.000000 -249.000000 65023.000000 85 23 1
297.000000 -249.000000 65022.000000 88 22 1
298.000000 -249.000000 65021.000000 90 24 1
299.000000 -249.000000 65020.000000 93 26 1
300.000000 -249.000000 65018.000000 87 31 1
301.000000 -249.000000 65017.000000 82 36 1
302.000000 -249.000000 65017.000000 75 45 1
303.000000 -249.000000 65016.000000 67 62 1
304.000000 -249.000000 65015.000000 58 69 1
305.000000 -249.000000 65013.000000 49 78 1
306.000000 -249.000000 65011.000000 47 77 1
307.000000 -249.000000 65010.000000 46 77 1
308.000000 -249.000000 65010.000000 48 77 1
309.000000 -249.000000 65006.000000 50 77 1
310.000000 -249.000000 65006.000000 52 77 1
311.000000 -249.000000 65006.000000 55 78 2
312.000000 -249.000000 65004.000000 57 72 4
256.000000 -250.000000 65024.000000 49 65 1
257.000000 -250.000000 65024.000000 45 65 1
258.000000 -250.000000 65024.000000 43 65 1
259.000000 -250.000000 65025.000000 42 61 1
260.000000 -250.000000 65026.000000 41 57 1
261.000000 -250.000000 65026.000000 40 56 1
262.000000 -250.000000 65026.000000 36 52 1
263.000000 -250.000000 65026.000000 32 53 1
264.000000 -250.000000 65027.000000 32 49 1
265.000000 -250.000000 65027.000000 33 46 1
266.000000 -250.000000 65027.000000 29 46 1
267.000000 -250.000000 65027.000000 26 46 1
268.000000 -250.000000 65026.000000 28 53 1
269.000000 -250.000000 65026.000000 31 50 1
270.000000 -250.000000 65026.000000 38 54 1
271.000000 -250.000000 65026.000000 45 54 1
272.000000 -250.000000 65026.000000 44 58 1
273.000000 -250.000000 65026.000000 44 52 1
274.000000 -250.000000 65026.000000 43 46 1
275.000000 -250.000000 65026.000000 42 35 1
276.000000 -250.000000 65026.000000 45 23 1
277.000000 -250.000000 65026.000000 49 14 1
278.000000 -250.000000 65026.000000 48 4 1
279.000000 -250.000000 65026.000000 47 5 6
280.000000 -250.000000 65026.000000 50 7 11
281.000000 -250.000000 65026.000000 54 7 6
282.000000 -250.000000 65026.000000 53 8 1
283.000000 -250.000000 65026.000000 53 11 1
284.000000 -250.000000 65027.000000 57 4 1
285.000000 -250.000000 65026.000000 61 3 1
286.000000 -250.000000 65026.000000 55 2 1
287.000000 -250.000000 65027.000000 50 3 2
288.000000 -250.000000 65027.000000 52 4 4
289.000000 -250.000000 65027.000000 55 3 2
290.000000 -250.000000 65026.000000 59 3 1
291.000000 -250.000000 65026.000000 63 5 3
292.000000 -250.000000 65026.000000 68 7 6
293.000000 -250.000000 65025.000000 74 17 3
294.000000 -250.000000 65025.000000 78 13 1
295.000000 -250.000000 65024.000000 82 22 1
296.000000 -250.000000 65024.000000 84 21 1
297.000000 -250.000000 65023.000000 87 23 1
298.000000 -250.000000 65022.000000 90 26 1
299.000000 -250.000000 65020.000000 94 26 3
300.000000 -250.000000 65018.000000 89 32 5
301.000000 -250.000000 65017.000000 84 38 3
302.000000 -250.000000 65017.000000 76 50 1
303.000000 -250.000000 65016.000000 69 61 1
304.000000 -250.000000 65014.000000 60 69 1
305.000000 -250.000000 65013.000000 51 75 1
306.000000 -250.000000 65011.000000 50 78 1
307.000000 -250.000000 65010.000000 49 77 1
308.000000 -250.000000 65010.000000 50 77 1
309.000000 -250.000000 65006.000000 52 79 1
310.000000 -250.000000 65006.000000 55 88 1
311.000000 -250.000000 65006.000000 58 80 6
256.000000 -251.000000 65024.000000 49 63 1
257.000000 -251.000000 65024.000000 45 62 1
258.000000 -251.000000 65024.000000 43 61 1
259.000000 -251.000000 65026.000000 41 61 1
260.000000 -251.000000 65026.000000 40 58 1
261.000000 -251.000000 65026.000000 39 56 1
262.000000 -251.000000 65026.000000 36 54 1
263.000000 -251.000000 65026.000000 33 53 1
264.000000 -251.000000 65027.000000 32 49 1
265.000000 -251.000000 65027.000000 32 47 1
266.000000 -251.000000 65027.000000 31 46 1
267.000000 -251.000000 65027.000000 29 46 1
268.000000 -251.000000 65027.000000 26 51 1
269.000000 -251.000000 65027.000000 22 50 1
270.000000 -251.000000 65027.000000 31 53 1
271.000000 -251.000000 65027.000000 41 53 1
272.000000 -251.000000 65026.000000 41 51 1
273.000000 -251.000000 65026.000000 41 50 1
274.000000 -251.000000 65026.000000 41 47 1
275.000000 -251.000000 65026.000000 42 35 1
276.000000 -251.000000 65026.000000 43 26 1
277.000000 -251.000000 65026.000000 44 14 1
278.000000 -251.000000 65027.000000 45 8 1
279.000000 -251.000000 65026.000000 45 3 1
280.000000 -251.000000 65026.000000 47 7 1
281.000000 -251.000000 65026.000000 49 12 1
282.000000 -251.000000 65026.000000 48 11 1
283.000000 -251.000000 65026.000000 47 11 1
284.000000 -251.000000 65026.000000 50 8 1
285.000000 -251.000000 65026.000000 53 6 1
286.000000 -251.000000 65026.000000 48 8 1
287.000000 -251.000000 65027.000000 44 11 1
288.000000 -251.000000 65027.000000 47 9 2
289.000000 -251.000000 65027.000000 51 7 1
290.000000 -251.000000 65027.000000 54 5 1
291.000000 -251.000000 65027.000000 58 4 1
292.000000 -251.000000 65026.000000 62 10 1
293.000000 -251.000000 65026.000000 66 16 1
294.000000 -251.000000 65025.000000 70 17 1
295.000000 -251.000000 65024.000000 75 19 1
296.000000 -251.000000 65024.000000 79 22 1
297.000000 -251.000000 65023.000000 83 25 1
298.000000 -251.000000 65022.000000 86 26 1
299.000000 -251.000000 65020.000000 89 27 5
300.000000 -251.000000 65019.000000 85 29 9
301.000000 -251.000000 65018.000000 80 40 5
302.000000 -251.000000 65017.000000 74 49 1
303.000000 -251.000000 65017.000000 69 60 1
304.000000 -251.000000 65015.000000 60 69 1
305.000000 -251.000000 65013.000000 51 73 1
306.000000 -251.000000 65011.000000 48 74 1
307.000000 -251.000000 65010.000000 45 76 1
308.000000 -251.000000 65010.000000 48 77 1
309.000000 -251.000000 65010.000000 51 82 1
310.000000 -251.000000 65006.000000 55 82 2
311.000000 -251.000000 65006.000000 60 83 9
256.000000 -252.000000 65023.000000 49 63 1
257.000000 -252.000000 65025.000000 45 62 1
258.000000 -252.000000 65026.000000 42 59 1
259.000000 -252.000000 65026.000000 40 61 3
260.000000 -252.000000 65026.000000 39 63 5
261.000000 -252.000000 65026.000000 39 55 3
262.000000 -252.000000 65026.000000 36 56 1
263.000000 -252.000000 65026.000000 34 52 1
264.000000 -252.000000 65026.000000 33 49 1
265.000000 -252.000000 65026.000000 32 46 1
266.000000 -252.000000 65026.000000 32 46 1
267.000000 -252.000000 65027.000000 33 48 1
268.000000 -252.000000 65027.000000 23 50 1
269.000000 -252.000000 65027.000000 14 50 1
270.000000 -252.000000 65027.000000 25 53 1
271.000000 -252.000000 65028.000000 37 52 1
272.000000 -252.000000 65026.000000 37 50 1
273.000000 -252.000000 65026.000000 38 49 1
274.000000 -252.000000 65026.000000 40 49 1
275.000000 -252.000000 65026.000000 42 39 1
276.000000 -252.000000 65027.000000 41 30 1
277.000000 -252.000000 65026.000000 40 24 1
278.000000 -252.000000 65027.000000 42 19 1
279.000000 -252.000000 65027.000000 44 21 1
280.000000 -252.000000 65027.000000 44 23 1
281.000000 -252.000000 65026.000000 45 25 1
282.000000 -252.000000 65026.000000 43 27 1
283.000000 -252.000000 65026.000000 42 26 1
284.000000 -252.000000 65026.000000 43 26 1
285.000000 -252.000000 65026.000000 45 23 1
286.000000 -252.000000 65026.000000 42 21 1
287.000000 -252.000000 65027.000000 39 22 1
288.000000 -252.000000 65027.000000 43 23 2
289.000000 -252.000000 65027.000000 47 23 1
290.000000 -252.000000 65027.000000 50 24 1
291.000000 -252.000000 65027.000000 53 30 1
292.000000 -252.000000 65026.000000 55 36 1
293.000000 -252.000000 65026.000000 58 35 1
294.000000 -252.000000 65026.000000 63 34 1
295.000000 -252.000000 65025.000000 69 35 1
296.000000 -252.000000 65024.000000 74 36 1
297.000000 -252.000000 65023.000000 80 35 1
298.000000 -252.000000 65022.000000 82 35 1
299.000000 -252.000000 65020.000000 85 31 3
300.000000 -252.000000 65019.000000 81 27 5
301.000000 -252.000000 65018.000000 77 36 3
302.000000 -252.000000 65017.000000 73 49 1
303.000000 -252.000000 65017.000000 69 66 1
304.000000 -252.000000 65015.000000 60 69 1
305.000000 -252.000000 65013.000000 52 71 1
306.000000 -252.000000 65011.000000 47 74 1
307.000000 -252.000000 65010.000000 42 76 1
308.000000 -252.000000 65010.000000 46 78 1
309.000000 -252.000000 65010.000000 50 79 1
256.000000 -253.000000 65023.000000 49 62 1
257.000000 -253.000000 65024.000000 45 62 1
258.000000 -253.000000 65025.000000 41 59 1
259.000000 -253.000000 65026.000000 38 55 5
260.000000 -253.000000 65026.000000 40 54 10
261.000000 -253.000000 65026.000000 43 54 5
262.000000 -253.000000 65026.000000 39 52 1
263.000000 -253.000000 65026.000000 36 51 1
264.000000 -253.000000 65027.000000 33 49 1
265.000000 -253.000000 65027.000000 30 45 1
266.000000 -253.000000 65026.000000 33 46 1
267.000000 -253.000000 65027.000000 36 50 1
268.000000 -253.000000 65027.000000 29 50 1
269.000000 -253.000000 65027.000000 23 51 1
270.000000 -253.000000 65027.000000 31 52 1
271.000000 -253.000000 65028.000000 39 52 1
272.000000 -253.000000 65026.000000 40 53 1
273.000000 -253.000000 65026.000000 41 54 1
274.000000 -253.000000 65026.000000 40 49 1
275.000000 -253.000000 65026.000000 40 43 1
276.000000 -253.000000 65026.000000 38 44 1
277.000000 -253.000000 65026.000000 36 45 1
278.000000 -253.000000 65027.000000 37 42 2
279.000000 -253.000000 65027.000000 39 40 1
280.000000 -253.000000 65027.000000 40 39 1
281.000000 -253.000000 65026.000000 41 38 1
282.000000 -253.000000 65026.000000 41 39 1
283.000000 -253.000000 65026.000000 40 41 1
284.000000 -253.000000 65026.000000 40 42 1
285.000000 -253.000000 65026.000000 39 43 1
286.000000 -253.000000 65026.000000 35 37 1
287.000000 -253.000000 65028.000000 31 32 1
288.000000 -253.000000 65027.000000 37 35 2
289.000000 -253.000000 65027.000000 44 38 1
290.000000 -253.000000 65027.000000 48 49 1
291.000000 -253.000000 65027.000000 53 60 1
292.000000 -253.000000 65026.000000 56 59 1
293.000000 -253.000000 65026.000000 59 58 1
294.000000 -253.000000 65026.000000 63 57 1
295.000000 -253.000000 65026.000000 68 57 1
296.000000 -253.000000 65025.000000 73 56 1
297.000000 -253.000000 65024.000000 78 56 1
298.000000 -253.000000 65023.000000 79 52 1
299.000000 -253.000000 65020.000000 80 49 1
300.000000 -253.000000 65019.000000 76 40 1
301.000000 -253.000000 65017.000000 72 32 1
302.000000 -253.000000 65017.000000 69 63 1
303.000000 -253.000000 65017.000000 66 72 1
304.000000 -253.000000 65015.000000 59 76 1
305.000000 -253.000000 65013.000000 52 81 1
306.000000 -253.000000 65013.000000 50 81 1
307.000000 -253.000000 65011.000000 49 82 1
308.000000 -253.000000 65010.000000 54 80 1
309.000000 -253.000000 65010.000000 59 65 1
256.000000 -254.000000 65023.000000 49 57 1
257.000000 -254.000000 65025.000000 45 59 1
258.000000 -254.000000 65025.000000 41 59 1
259.000000 -254.000000 65026.000000 37 55 3
260.000000 -254.000000 65026.000000 42 51 5
261.000000 -254.000000 65026.000000 47 50 3
262.000000 -254.000000 65026.000000 42 50 1
263.000000 -254.000000 65026.000000 38 49 1
264.000000 -254.000000 65026.000000 33 49 1
265.000000 -254.000000 65026.000000 29 45 1
266.000000 -254.000000 65026.000000 34 46 1
267.000000 -254.000000 65027.000000 39 47 1
268.000000 -254.000000 65027.000000 35 49 1
269.000000 -254.000000 65027.000000 32 52 1
270.000000 -254.000000 65027.000000 36 52 1
271.000000 -254.000000 65027.000000 41 52 1
272.000000 -254.000000 65026.000000 42 55 1
273.000000 -254.000000 65026.000000 44 54 1
274.000000 -254.000000 65026.000000 41 50 1
275.000000 -254.000000 65026.000000 38 49 1
276.000000 -254.000000 65026.000000 35 48 1
277.000000 -254.000000 65026.000000 33 47 1
278.000000 -254.000000 65027.000000 33 46 1
279.000000 -254.000000 65027.000000 34 43 8
280.000000 -254.000000 65027.000000 36 42 14
281.000000 -254.000000 65026.000000 38 44 7
282.000000 -254.000000 65026.000000 38 47 1
283.000000 -254.000000 65026.000000 39 46 1
284.000000 -254.000000 65026.000000 36 46 1
285.000000 -254.000000 65026.000000 34 44 1
286.000000 -254.000000 65027.000000 29 47 1
287.000000 -254.000000 65027.000000 24 46 1
288.000000 -254.000000 65027.000000 32 46 1
289.000000 -254.000000 65027.000000 41 51 1
290.000000 -254.000000 65027.000000 47 56 1
291.000000 -254.000000 65027.000000 53 63 1
292.000000 -254.000000 65026.000000 56 75 1
293.000000 -254.000000 65026.000000 60 63 1
294.000000 -254.000000 65026.000000 63 64 1
295.000000 -254.000000 65026.000000 67 71 1
296.000000 -254.000000 65025.000000 72 78 1
297.000000 -254.000000 65025.000000 77 73 1
298.000000 -254.000000 65024.000000 76 68 2
299.000000 -254.000000 65020.000000 76 71 2
300.000000 -254.000000 65019.000000 71 74 2
301.000000 -254.000000 65017.000000 67 75 1
302.000000 -254.000000 65017.000000 65 77 1
303.000000 -254.000000 65017.000000 64 79 1
304.000000 -254.000000 65015.000000 58 82 1
305.000000 -254.000000 65013.000000 53 80 1
306.000000 -254.000000 65013.000000 54 85 1
307.000000 -254.000000 65010.000000 56 82 1
308.000000 -254.000000 65010.000000 62 82 1
309.000000 -254.000000 65010.000000 69 86 1
310.000000 -254.000000 65010.000000 68 91 1
255.000000 -255.000000 65020.000000 52 63 1
256.000000 -255.000000 65023.000000 49 61 1
257.000000 -255.000000 65024.000000 46 60 1
258.000000 -255.000000 65025.000000 43 59 1
259.000000 -255.000000 65026.000000 40 55 1
260.000000 -255.000000 65026.000000 42 52 1
261.000000 -255.000000 65026.000000 44 51 1
262.000000 -255.000000 65026.000000 40 53 1
263.000000 -255.000000 65026.000000 36 55 1
264.000000 -255.000000 65026.000000 33 49 1
265.000000 -255.000000 65027.000000 31 46 1
266.000000 -255.000000 65026.000000 32 45 1
267.000000 -255.000000 65026.000000 34 45 1
268.000000 -255.000000 65026.000000 33 50 1
269.000000 -255.000000 65026.000000 32 53 1
270.000000 -255.000000 65026.000000 36 52 1
271.000000 -255.000000 65027.000000 40 52 1
272.000000 -255.000000 65027.000000 44 54 1
273.000000 -255.000000 65026.000000 47 59 1
274.000000 -255.000000 65027.000000 40 52 1
275.000000 -255.000000 65027.000000 34 51 1
276.000000 -255.000000 65027.000000 28 47 1
277.000000 -255.000000 65027.000000 23 39 1
278.000000 -255.000000 65027.000000 27 41 1
279.000000 -255.000000 65026.000000 30 44 14
280.000000 -255.000000 65026.000000 35 42 28
281.000000 -255.000000 65026.000000 39 47 14
282.000000 -255.000000 65026.000000 36 46 1
283.000000 -255.000000 65026.000000 34 45 1
284.000000 -255.000000 65026.000000 33 43 1
285.000000 -255.000000 65026.000000 33 42 1
286.000000 -255.000000 65026.000000 30 43 1
287.000000 -255.000000 65027.000000 27 45 1
288.000000 -255.000000 65027.000000 33 45 1
289.000000 -255.000000 65028.000000 39 53 1
290.000000 -255.000000 65028.000000 45 60 1
291.000000 -255.000000 65028.000000 51 67 1
292.000000 -255.000000 65027.000000 56 67 1
293.000000 -255.000000 65026.000000 61 68 1
294.000000 -255.000000 65026.000000 66 73 1
295.000000 -255.000000 65026.000000 72 78 1
296.000000 -255.000000 65026.000000 77 78 1
297.000000 -255.000000 65025.000000 82 83 2
298.000000 -255.000000 65025.000000 80 85 3
299.000000 -255.000000 65020.000000 78 87 3
300.000000 -255.000000 65019.000000 75 85 3
301.000000 -255.000000 65017.000000 72 84 2
302.000000 -255.000000 65017.000000 71 78 1
303.000000 -255.000000 65017.000000 71 79 1
304.000000 -255.000000 65015.000000 60 79 1
305.000000 -255.000000 65013.000000 49 79 1
306.000000 -255.000000 65013.000000 50 81 1
307.000000 -255.000000 65010.000000 51 83 1
308.000000 -255.000000 65010.000000 55 81 1
309.000000 -255.000000 65010.000000 60 88 1
310.000000 -255.000000 65010.000000 62 89 2
255.000000 -256.000000 65020.000000 51 62 1
256.000000 -256.000000 65021.000000 49 61 1
257.000000 -256.000000 65023.000000 48 59 1
258.000000 -256.000000 65025.000000 46 59 1
259.000000 -256.000000 65026.000000 44 54 1
260.000000 -256.000000 65026.000000 43 54 1
261.000000 -256.000000 65026.000000 42 54 1
262.000000 -256.000000 65026.000000 38 55 1
263.000000 -256.000000 65026.000000 34 53 1
264.000000 -256.000000 65027.000000 33 49 1
265.000000 -256.000000 65027.000000 33 47 1
266.000000 -256.000000 65027.000000 31 42 1
267.000000 -256.000000 65027.000000 29 43 1
268.000000 -256.000000 65026.000000 30 51 1
269.000000 -256.000000 65027.000000 32 50 1
270.000000 -256.000000 65027.000000 36 50 1
271.000000 -256.000000 65028.000000 40 51 1
272.000000 -256.000000 65028.000000 45 53 1
273.000000 -256.000000 65027.000000 51 54 1
274.000000 -256.000000 65027.000000 40 55 1
275.000000 -256.000000 65027.000000 30 51 1
276.000000 -256.000000 65027.000000 22 46 1
277.000000 -256.000000 65027.000000 14 36 1
278.000000 -256.000000 65027.000000 20 37 1
279.000000 -256.000000 65026.000000 27 40 7
280.000000 -256.000000 65026.000000 34 43 14
281.000000 -256.000000 65026.000000 41 41 7
282.000000 -256.000000 65026.000000 35 39 1
283.000000 -256.000000 65026.000000 29 37 1
284.000000 -256.000000 65026.000000 30 35 1
285.000000 -256.000000 65026.000000 32 34 1
286.000000 -256.000000 65026.000000 31 34 1
287.000000 -256.000000 65027.000000 30 39 1
288.000000 -256.000000 65027.000000 33 44 1
289.000000 -256.000000 65027.000000 37 49 1
290.000000 -256.000000 65028.000000 43 64 1
291.000000 -256.000000 65028.000000 50 66 1
292.000000 -256.000000 65027.000000 56 68 1
293.000000 -256.000000 65027.000000 63 72 1
294.000000 -256.000000 65027.000000 70 79 1
295.000000 -256.000000 65027.000000 77 78 1
296.000000 -256.000000 65027.000000 82 78 1
297.000000 -256.000000 65026.000000 88 80 1
298.000000 -256.000000 65026.000000 84 94 2
299.000000 -256.000000 65026.000000 80 93 5
300.000000 -256.000000 65026.000000 78 93 8
301.000000 -256.000000 65017.000000 77 84 4
302.000000 -256.000000 65017.000000 78 79 1
303.000000 -256.000000 65017.000000 79 79 1
304.000000 -256.000000 65017.000000 62 76 1
305.000000 -256.000000 65014.000000 46 74 1
306.000000 -256.000000 65011.000000 46 72 1
307.000000 -256.000000 65010.000000 47 83 1
308.000000 -256.000000 65010.000000 49 80 1
309.000000 -256.000000 65009.000000 51 82 1
310.000000 -256.000000 65009.000000 55 85 1
311.000000 -256.000000 65009.000000 60 84 6
255.000000 -257.000000 65020.000000 46 62 1
256.000000 -257.000000 65021.000000 46 61 1
257.000000 -257.000000 65024.000000 47 58 1
258.000000 -257.000000 65025.000000 45 57 1
259.000000 -257.000000 65026.000000 44 53 1
260.000000 -257.000000 65026.000000 42 56 1
261.000000 -257.000000 65026.000000 40 60 1
262.000000 -257.000000 65026.000000 36 54 1
263.000000 -257.000000 65027.000000 31 51 1
264.000000 -257.000000 65027.000000 31 50 1
265.000000 -257.000000 65028.000000 30 48 1
266.000000 -257.000000 65028.000000 29 43 1
267.000000 -257.000000 65027.000000 29 42 1
268.000000 -257.000000 65027.000000 27 46 1
269.000000 -257.000000 65028.000000 25 51 1
270.000000 -257.000000 65028.000000 31 50 1
271.000000 -257.000000 65028.000000 38 49 1
272.000000 -257.000000 65028.000000 41 49 2
273.000000 -257.000000 65027.000000 44 49 1
274.000000 -257.000000 65028.000000 37 50 1
275.000000 -257.000000 65027.000000 30 51 1
276.000000 -257.000000 65027.000000 19 40 1
277.000000 -257.000000 65026.000000 9 34 1
278.000000 -257.000000 65026.000000 15 32 1
279.000000 -257.000000 65026.000000 22 30 1
280.000000 -257.000000 65026.000000 27 32 1
281.000000 -257.000000 65026.000000 32 34 1
282.000000 -257.000000 65026.000000 25 32 1
283.000000 -257.000000 65026.000000 19 31 1
284.000000 -257.000000 65026.000000 24 34 2
285.000000 -257.000000 65026.000000 29 26 1
286.000000 -257.000000 65026.000000 28 26 1
287.000000 -257.000000 65026.000000 28 26 1
288.000000 -257.000000 65027.000000 27 36 1
289.000000 -257.000000 65027.000000 26 46 1
290.000000 -257.000000 65027.000000 35 48 1
291.000000 -257.000000 65027.000000 45 51 1
292.000000 -257.000000 65026.000000 54 63 2
293.000000 -257.000000 65026.000000 62 76 1
294.000000 -257.000000 65026.000000 69 77 1
295.000000 -257.000000 65026.000000 75 72 1
296.000000 -257.000000 65026.000000 77 74 1
297.000000 -257.000000 65026.000000 79 77 1
298.000000 -257.000000 65026.000000 73 85 1
299.000000 -257.000000 65026.000000 67 93 7
300.000000 -257.000000 65017.000000 69 88 13
301.000000 -257.000000 65017.000000 72 84 7
302.000000 -257.000000 65017.000000 72 81 2
303.000000 -257.000000 65017.000000 72 80 1
304.000000 -257.000000 65016.000000 60 77 1
305.000000 -257.000000 65013.000000 48 72 1
306.000000 -257.000000 65011.000000 48 77 1
307.000000 -257.000000 65010.000000 47 83 1
308.000000 -257.000000 65009.000000 49 81 1
309.000000 -257.000000 65009.000000 52 79 1
310.000000 -257.000000 65009.000000 56 77 1
311.000000 -257.000000 65009.000000 60 76 9
312.000000 -257.000000 65003.000000 68 76 18
313.000000 -257.000000 65003.000000 77 77 19
255.000000 -258.000000 65020.000000 41 60 4
256.000000 -258.000000 65023.000000 43 61 1
257.000000 -258.000000 65025.000000 46 58 1
258.000000 -258.000000 65025.000000 45 55 1
259.000000 -258.000000 65026.000000 44 56 13
260.000000 -258.000000 65026.000000 41 58 25
261.000000 -258.000000 65026.000000 39 56 14
262.000000 -258.000000 65026.000000 34 54 4
263.000000 -258.000000 65027.000000 29 53 3
264.000000 -258.000000 65028.000000 28 52 2
265.000000 -258.000000 65029.000000 28 46 3
266.000000 -258.000000 65028.000000 28 44 4
267.000000 -258.000000 65028.000000 29 43 2
268.000000 -258.000000 65028.000000 23 42 1
269.000000 -258.000000 65027.000000 18 50 1
270.000000 -258.000000 65028.000000 27 50 1
271.000000 -258.000000 65028.000000 36 48 4
272.000000 -258.000000 65028.000000 36 47 8
273.000000 -258.000000 65026.000000 37 47 4
274.000000 -258.000000 65027.000000 34 47 1
275.000000 -258.000000 65027.000000 31 46 1
276.000000 -258.000000 65027.000000 17 35 1
277.000000 -258.000000 65026.000000 4 36 1
278.000000 -258.000000 65026.000000 11 28 1
279.000000 -258.000000 65026.000000 18 30 1
280.000000 -258.000000 65026.000000 20 33 1
281.000000 -258.000000 65026.000000 23 33 1
282.000000 -258.000000 65026.000000 16 25 1
283.000000 -258.000000 65026.000000 10 35 10
284.000000 -258.000000 65026.000000 18 34 20
285.000000 -258.000000 65026.000000 26 29 10
286.000000 -258.000000 65026.000000 26 25 1
287.000000 -258.000000 65026.000000 26 24 1
288.000000 -258.000000 65026.000000 20 23 1
289.000000 -258.000000 65027.000000 15 34 1
290.000000 -258.000000 65027.000000 28 39 1
291.000000 -258.000000 65027.000000 41 46 5
292.000000 -258.000000 65026.000000 51 42 10
293.000000 -258.000000 65026.000000 62 77 5
294.000000 -258.000000 65026.000000 68 83 1
295.000000 -258.000000 65026.000000 74 76 2
296.000000 -258.000000 65026.000000 72 69 3
297.000000 -258.000000 65026.000000 71 77 2
298.000000 -258.000000 65026.000000 62 67 1
299.000000 -258.000000 65026.000000 54 73 7
300.000000 -258.000000 65017.000000 61 80 14
301.000000 -258.000000 65017.000000 68 84 7
302.000000 -258.000000 65017.000000 66 83 1
303.000000 -258.000000 65017.000000 65 80 1
304.000000 -258.000000 65016.000000 58 78 1
305.000000 -258.000000 65016.000000 51 79 3
306.000000 -258.000000 65012.000000 49 86 6
307.000000 -258.000000 65010.000000 48 83 3
308.000000 -258.000000 65009.000000 50 83 1
309.000000 -258.000000 65009.000000 53 79 1
310.000000 -258.000000 65009.000000 56 77 1
311.000000 -258.000000 65004.000000 60 76 7
312.000000 -258.000000 65004.000000 68 76 13
313.000000 -258.000000 65003.000000 77 78 18
255.000000 -259.000000 65021.000000 45 59 7
256.000000 -259.000000 65023.000000 45 59 2
257.000000 -259.000000 65025.000000 46 59 1
258.000000 -259.000000 65025.000000 43 58 1
259.000000 -259.000000 65026.000000 41 61 25
260.000000 -259.000000 65026.000000 39 56 50
261.000000 -259.000000 65026.000000 38 51 28
262.000000 -259.000000 65027.000000 34 49 7
263.000000 -259.000000 65028.000000 31 47 5
264.000000 -259.000000 65028.000000 27 46 3
265.000000 -259.000000 65029.000000 23 45 5
266.000000 -259.000000 65029.000000 26 45 7
267.000000 -259.000000 65028.000000 29 46 4
268.000000 -259.000000 65028.000000 27 48 1
269.000000 -259.000000 65027.000000 26 50 1
270.000000 -259.000000 65028.000000 33 50 1
271.000000 -259.000000 65028.000000 40 59 7
272.000000 -259.000000 65026.000000 39 50 14
273.000000 -259.000000 65026.000000 38 52 7
274.000000 -259.000000 65026.000000 36 45 1
275.000000 -259.000000 65026.000000 33 42 1
276.000000 -259.000000 65026.000000 30 40 1
277.000000 -259.000000 65026.000000 26 39 1
278.000000 -259.000000 65026.000000 26 39 1
279.000000 -259.000000 65026.000000 26 39 1
280.000000 -259.000000 65026.000000 27 36 1
281.000000 -259.000000 65026.000000 28 33 1
282.000000 -259.000000 65026.000000 28 36 2
283.000000 -259.000000 65026.000000 28 39 20
284.000000 -259.000000 65026.000000 29 36 38
285.000000 -259.000000 65026.000000 31 33 19
286.000000 -259.000000 65026.000000 33 34 1
287.000000 -259.000000 65027.000000 36 36 1
288.000000 -259.000000 65027.000000 31 33 1
289.000000 -259.000000 65027.000000 26 30 1
290.000000 -259.000000 65028.000000 35 47 1
291.000000 -259.000000 65027.000000 45 54 9
292.000000 -259.000000 65027.000000 54 66 18
293.000000 -259.000000 65026.000000 64 78 10
294.000000 -259.000000 65026.000000 71 83 2
295.000000 -259.000000 65026.000000 79 80 4
296.000000 -259.000000 65026.000000 76 78 6
297.000000 -259.000000 65026.000000 74 77 3
298.000000 -259.000000 65026.000000 68 75 1
299.000000 -259.000000 65026.000000 62 53 8
300.000000 -259.000000 65017.000000 67 82 15
301.000000 -259.000000 65017.000000 72 85 8
302.000000 -259.000000 65017.000000 68 82 1
303.000000 -259.000000 65017.000000 64 80 1
304.000000 -259.000000 65016.000000 55 80 1
305.000000 -259.000000 65015.000000 46 80 6
306.000000 -259.000000 65013.000000 43 81 12
307.000000 -259.000000 65010.000000 41 83 6
308.000000 -259.000000 65010.000000 47 81 1
309.000000 -259.000000 65006.000000 53 80 1
310.000000 -259.000000 65006.000000 57 80 1
311.000000 -259.000000 65004.000000 61 80 5
312.000000 -259.000000 65004.000000 69 79 9
255.000000 -260.000000 65022.000000 49 59 4
256.000000 -260.000000 65024.000000 48 58 1
257.000000 -260.000000 65025.000000 47 57 1
258.000000 -260.000000 65025.000000 42 57 1
259.000000 -260.000000 65026.000000 38 60 13
260.000000 -260.000000 65026.000000 38 54 25
261.000000 -260.000000 65026.000000 38 52 14
262.000000 -260.000000 65027.000000 35 47 4
263.000000 -260.000000 65027.000000 33 47 3
264.000000 -260.000000 65028.000000 26 48 2
265.000000 -260.000000 65029.000000 19 45 3
266.000000 -260.000000 65029.000000 24 42 4
267.000000 -260.000000 65028.000000 30 45 2
268.000000 -260.000000 65028.000000 32 48 1
269.000000 -260.000000 65028.000000 34 49 1
270.000000 -260.000000 65029.000000 39 50 1
271.000000 -260.000000 65028.000000 44 51 4
272.000000 -260.000000 65026.000000 42 53 7
273.000000 -260.000000 65026.000000 40 50 4
274.000000 -260.000000 65026.000000 38 43 1
275.000000 -260.000000 65026.000000 36 41 1
276.000000 -260.000000 65027.000000 42 41 1
277.000000 -260.000000 65026.000000 49 43 1
278.000000 -260.000000 65026.000000 41 45 1
279.000000 -260.000000 65026.000000 34 42 2
280.000000 -260.000000 65026.000000 34 42 3
281.000000 -260.000000 65026.000000 34 41 2
282.000000 -260.000000 65026.000000 40 41 1
283.000000 -260.000000 65026.000000 46 38 10
284.000000 -260.000000 65026.000000 41 38 19
285.000000 -260.000000 65026.000000 36 33 10
286.000000 -260.000000 65026.000000 41 34 1
287.000000 -260.000000 65027.000000 46 38 1
288.000000 -260.000000 65027.000000 42 41 1
289.000000 -260.000000 65027.000000 38 48 1
290.000000 -260.000000 65028.000000 43 55 1
291.000000 -260.000000 65028.000000 49 58 5
292.000000 -260.000000 65027.000000 58 71 9
293.000000 -260.000000 65027.000000 67 76 5
294.000000 -260.000000 65026.000000 75 83 1
295.000000 -260.000000 65026.000000 84 82 11
296.000000 -260.000000 65026.000000 80 82 21
297.000000 -260.000000 65025.000000 77 83 12
298.000000 -260.000000 65024.000000 74 84 4
299.000000 -260.000000 65022.000000 71 84 21
300.000000 -260.000000 65019.000000 73 84 39
301.000000 -260.000000 65017.000000 76 83 20
302.000000 -260.000000 65017.000000 69 82 1
303.000000 -260.000000 65017.000000 63 80 1
304.000000 -260.000000 65017.000000 52 74 1
305.000000 -260.000000 65014.000000 42 78 3
306.000000 -260.000000 65014.000000 38 78 6
307.000000 -260.000000 65012.000000 34 79 3
308.000000 -260.000000 65009.000000 43 80 1
309.000000 -260.000000 65009.000000 53 80 1
310.000000 -260.000000 65007.000000 57 80 1
311.000000 -260.000000 65004.000000 62 80 3
312.000000 -260.000000 65004.000000 71 80 5
313.000000 -260.000000 65004.000000 80 78 12
255.000000 -261.000000 65022.000000 51 59 1
256.000000 -261.000000 65023.000000 48 58 1
257.000000 -261.000000 65025.000000 46 55 1
258.000000 -261.000000 65025.000000 42 56 1
259.000000 -261.000000 65026.000000 38 59 1
260.000000 -261.000000 65026.000000 38 54 1
261.000000 -261.000000 65026.000000 38 54 1
262.000000 -261.000000 65026.000000 36 53 1
263.000000 -261.000000 65027.000000 33 53 1
264.000000 -261.000000 65027.000000 30 50 1
265.000000 -261.000000 65028.000000 26 46 1
266.000000 -261.000000 65029.000000 29 44 1
267.000000 -261.000000 65028.000000 32 44 1
268.000000 -261.000000 65028.000000 28 47 1
269.000000 -261.000000 65028.000000 24 48 1
270.000000 -261.000000 65029.000000 36 50 1
271.000000 -261.000000 65029.000000 48 53 1
272.000000 -261.000000 65027.000000 44 52 1
273.000000 -261.000000 65027.000000 40 48 1
274.000000 -261.000000 65027.000000 38 44 1
275.000000 -261.000000 65027.000000 36 41 1
276.000000 -261.000000 65027.000000 33 39 1
277.000000 -261.000000 65026.000000 31 34 1
278.000000 -261.000000 65026.000000 31 39 1
279.000000 -261.000000 65026.000000 30 42 3
280.000000 -261.000000 65026.000000 32 42 5
281.000000 -261.000000 65026.000000 33 36 3
282.000000 -261.000000 65026.000000 36 36 1
283.000000 -261.000000 65026.000000 40 36 1
284.000000 -261.000000 65026.000000 37 35 1
285.000000 -261.000000 65026.000000 35 34 1
286.000000 -261.000000 65027.000000 37 37 1
287.000000 -261.000000 65027.000000 40 41 1
288.000000 -261.000000 65028.000000 39 43 1
289.000000 -261.000000 65028.000000 39 49 1
290.000000 -261.000000 65029.000000 44 55 1
291.000000 -261.000000 65029.000000 49 63 1
292.000000 -261.000000 65027.000000 56 68 1
293.000000 -261.000000 65027.000000 63 74 1
294.000000 -261.000000 65027.000000 71 78 1
295.000000 -261.000000 65027.000000 79 84 19
296.000000 -261.000000 65025.000000 77 83 37
297.000000 -261.000000 65024.000000 75 85 22
298.000000 -261.000000 65023.000000 75 84 7
299.000000 -261.000000 65022.000000 75 84 35
300.000000 -261.000000 65020.000000 80 83 63
301.000000 -261.000000 65018.000000 85 83 32
302.000000 -261.000000 65018.000000 75 82 1
303.000000 -261.000000 65017.000000 65 81 1
304.000000 -261.000000 65017.000000 55 77 1
305.000000 -261.000000 65014.000000 45 77 1
306.000000 -261.000000 65013.000000 42 78 1
307.000000 -261.000000 65012.000000 40 80 1
308.000000 -261.000000 65009.000000 45 80 1
309.000000 -261.000000 65009.000000 51 79 1
310.000000 -261.000000 65009.000000 54 80 1
311.000000 -261.000000 65004.000000 58 80 1
312.000000 -261.000000 65004.000000 68 79 1
313.000000 -261.000000 65004.000000 78 77 5
255.000000 -262.000000 65022.000000 53 60 1
256.000000 -262.000000 65023.000000 49 59 1
257.000000 -262.000000 65025.000000 45 54 1
258.000000 -262.000000 65025.000000 41 55 1
259.000000 -262.000000 65026.000000 38 54 1
260.000000 -262.000000 65026.000000 38 54 1
261.000000 -262.000000 65026.000000 39 53 1
262.000000 -262.000000 65026.000000 36 52 1
263.000000 -262.000000 65026.000000 34 52 1
264.000000 -262.000000 65027.000000 34 52 1
265.000000 -262.000000 65029.000000 34 47 1
266.000000 -262.000000 65029.000000 34 44 1
267.000000 -262.000000 65028.000000 34 43 1
268.000000 -262.000000 65029.000000 24 47 1
269.000000 -262.000000 65029.000000 14 49 1
270.000000 -262.000000 65029.000000 33 51 1
271.000000 -262.000000 65029.000000 53 52 1
272.000000 -262.000000 65028.000000 46 52 1
273.000000 -262.000000 65027.000000 40 49 1
274.000000 -262.000000 65027.000000 38 51 1
275.000000 -262.000000 65027.000000 36 42 1
276.000000 -262.000000 65027.000000 25 38 1
277.000000 -262.000000 65026.000000 14 37 1
278.000000 -262.000000 65026.000000 20 37 1
279.000000 -262.000000 65026.000000 27 42 2
280.000000 -262.000000 65026.000000 30 42 3
281.000000 -262.000000 65026.000000 33 39 2
282.000000 -262.000000 65026.000000 33 31 1
283.000000 -262.000000 65026.000000 34 37 1
284.000000 -262.000000 65026.000000 34 43 1
285.000000 -262.000000 65027.000000 34 41 1
286.000000 -262.000000 65028.000000 34 40 1
287.000000 -262.000000 65027.000000 34 41 1
288.000000 -262.000000 65028.000000 37 46 1
289.000000 -262.000000 65029.000000 41 48 1
290.000000 -262.000000 65029.000000 45 55 1
291.000000 -262.000000 65029.000000 50 60 1
292.000000 -262.000000 65027.000000 55 65 1
293.000000 -262.000000 65027.000000 60 70 1
294.000000 -262.000000 65026.000000 67 74 1
295.000000 -262.000000 65026.000000 74 78 13
296.000000 -262.000000 65026.000000 74 83 25
297.000000 -262.000000 65024.000000 74 82 14
298.000000 -262.000000 65023.000000 76 77 4
299.000000 -262.000000 65022.000000 79 89 18
300.000000 -262.000000 65021.000000 87 89 33
301.000000 -262.000000 65019.000000 95 86 17
302.000000 -262.000000 65019.000000 81 84 1
303.000000 -262.000000 65018.000000 68 81 1
304.000000 -262.000000 65018.000000 58 78 1
305.000000 -262.000000 65013.000000 48 78 1
306.000000 -262.000000 65013.000000 47 78 1
307.000000 -262.000000 65011.000000 47 79 1
308.000000 -262.000000 65009.000000 48 80 1
309.000000 -262.000000 65008.000000 49 80 1
310.000000 -262.000000 65007.000000 52 80 1
311.000000 -262.000000 65004.000000 55 80 1
312.000000 -262.000000 65004.000000 65 78 1
255.000000 -263.000000 65022.000000 51 55 1
256.000000 -263.000000 65023.000000 47 54 1
257.000000 -263.000000 65026.000000 43 54 1
258.000000 -263.000000 65026.000000 41 54 1
259.000000 -263.000000 65026.000000 39 55 1
260.000000 -263.000000 65026.000000 39 52 1
261.000000 -263.000000 65026.000000 40 50 1
262.000000 -263.000000 65027.000000 37 51 1
263.000000 -263.000000 65026.000000 35 51 1
264.000000 -263.000000 65026.000000 33 51 1
265.000000 -263.000000 65028.000000 31 48 1
266.000000 -263.000000 65029.000000 31 45 1
267.000000 -263.000000 65028.000000 31 43 1
268.000000 -263.000000 65029.000000 26 49 1
269.000000 -263.000000 65029.000000 21 52 1
270.000000 -263.000000 65029.000000 34 52 1
271.000000 -263.000000 65029.000000 47 52 1
272.000000 -263.000000 65028.000000 42 51 1
273.000000 -263.000000 65027.000000 37 47 1
274.000000 -263.000000 65027.000000 36 45 1
275.000000 -263.000000 65027.000000 35 43 1
276.000000 -263.000000 65027.000000 28 41 1
277.000000 -263.000000 65026.000000 22 39 1
278.000000 -263.000000 65026.000000 25 38 1
279.000000 -263.000000 65027.000000 28 42 1
280.000000 -263.000000 65027.000000 34 42 1
281.000000 -263.000000 65026.000000 40 42 1
282.000000 -263.000000 65026.000000 37 40 1
283.000000 -263.000000 65026.000000 33 39 1
284.000000 -263.000000 65027.000000 32 43 1
285.000000 -263.000000 65028.000000 32 43 1
286.000000 -263.000000 65028.000000 33 39 1
287.000000 -263.000000 65028.000000 34 41 1
288.000000 -263.000000 65028.000000 36 45 1
289.000000 -263.000000 65029.000000 38 47 1
290.000000 -263.000000 65029.000000 42 54 1
291.000000 -263.000000 65029.000000 46 58 1
292.000000 -263.000000 65028.000000 51 62 1
293.000000 -263.000000 65027.000000 57 67 1
294.000000 -263.000000 65027.000000 63 69 1
295.000000 -263.000000 65027.000000 70 72 7
296.000000 -263.000000 65026.000000 72 79 14
297.000000 -263.000000 65024.000000 75 80 7
298.000000 -263.000000 65023.000000 77 85 1
299.000000 -263.000000 65022.000000 80 94 2
300.000000 -263.000000 65020.000000 85 95 3
301.000000 -263.000000 65020.000000 90 97 2
302.000000 -263.000000 65019.000000 78 94 2
303.000000 -263.000000 65017.000000 67 92 1
304.000000 -263.000000 65015.000000 57 82 1
305.000000 -263.000000 65013.000000 47 78 1
306.000000 -263.000000 65013.000000 46 78 1
307.000000 -263.000000 65011.000000 46 77 1
308.000000 -263.000000 65009.000000 42 77 1
309.000000 -263.000000 65009.000000 38 77 1
310.000000 -263.000000 65007.000000 45 78 1
311.000000 -263.000000 65004.000000 53 80 1
312.000000 -263.000000 65004.000000 64 79 1
255.000000 -264.000000 65022.000000 50 60 1
256.000000 -264.000000 65023.000000 46 62 1
257.000000 -264.000000 65026.000000 42 60 1
258.000000 -264.000000 65026.000000 41 59 1
259.000000 -264.000000 65026.000000 40 55 1
260.000000 -264.000000 65026.000000 41 51 1
261.000000 -264.000000 65027.000000 42 51 1
262.000000 -264.000000 65027.000000 39 51 1
263.000000 -264.000000 65028.000000 36 50 1
264.000000 -264.000000 65027.000000 32 50 1
265.000000 -264.000000 65029.000000 29 50 1
266.000000 -264.000000 65029.000000 28 50 1
267.000000 -264.000000 65029.000000 28 50 2
268.000000 -264.000000 65029.000000 28 51 4
269.000000 -264.000000 65029.000000 29 53 2
270.000000 -264.000000 65029.000000 35 54 1
