ply
    format ascii 1.0
    element vertex 10546
    property float x
    property float y
    property float z
    property uchar red
    property uchar green
    property uchar blue
    end_header
267.000000 -313.000000 65034.000000 29 27 7
268.000000 -313.000000 65034.000000 30 38 2
269.000000 -313.000000 65034.000000 30 43 21
270.000000 -313.000000 65035.000000 32 47 40
271.000000 -313.000000 65035.000000 33 44 20
272.000000 -313.000000 65035.000000 34 44 1
273.000000 -313.000000 65035.000000 35 45 1
274.000000 -313.000000 65035.000000 36 43 1
275.000000 -313.000000 65035.000000 37 49 1
276.000000 -313.000000 65035.000000 33 49 1
277.000000 -313.000000 65035.000000 30 50 1
278.000000 -313.000000 65035.000000 27 52 1
279.000000 -313.000000 65036.000000 25 55 1
280.000000 -313.000000 65036.000000 29 52 1
281.000000 -313.000000 65037.000000 34 49 1
282.000000 -313.000000 65036.000000 37 48 1
283.000000 -313.000000 65036.000000 41 54 1
284.000000 -313.000000 65036.000000 43 56 1
285.000000 -313.000000 65036.000000 45 62 1
286.000000 -313.000000 65035.000000 47 62 1
287.000000 -313.000000 65035.000000 48 68 1
288.000000 -313.000000 65035.000000 51 71 1
289.000000 -313.000000 65035.000000 55 75 1
290.000000 -313.000000 65035.000000 58 82 1
291.000000 -313.000000 65035.000000 61 87 1
292.000000 -313.000000 65033.000000 63 87 1
293.000000 -313.000000 65032.000000 65 88 1
294.000000 -313.000000 65029.000000 68 87 1
295.000000 -313.000000 65029.000000 72 87 12
296.000000 -313.000000 65029.000000 71 88 24
297.000000 -313.000000 65026.000000 71 83 12
298.000000 -313.000000 65025.000000 67 79 1
299.000000 -313.000000 65025.000000 64 76 12
300.000000 -313.000000 65025.000000 63 76 24
301.000000 -313.000000 65023.000000 62 76 12
302.000000 -313.000000 65020.000000 62 76 1
303.000000 -313.000000 65020.000000 62 77 1
304.000000 -313.000000 65020.000000 66 73 1
305.000000 -313.000000 65020.000000 69 69 1
306.000000 -313.000000 65019.000000 69 63 1
307.000000 -313.000000 65019.000000 70 58 1
308.000000 -313.000000 65019.000000 70 66 1
309.000000 -313.000000 65019.000000 71 74 27
252.000000 -314.000000 65029.000000 43 45 1
253.000000 -314.000000 65029.000000 39 47 1
254.000000 -314.000000 65029.000000 37 50 1
255.000000 -314.000000 65029.000000 35 49 1
256.000000 -314.000000 65029.000000 31 51 1
257.000000 -314.000000 65031.000000 28 49 1
258.000000 -314.000000 65032.000000 29 46 1
259.000000 -314.000000 65032.000000 30 45 1
260.000000 -314.000000 65032.000000 30 44 1
261.000000 -314.000000 65032.000000 30 46 1
262.000000 -314.000000 65034.000000 25 48 1
263.000000 -314.000000 65034.000000 21 43 1
264.000000 -314.000000 65034.000000 20 31 1
265.000000 -314.000000 65034.000000 20 33 4
266.000000 -314.000000 65035.000000 32 36 7
267.000000 -314.000000 65035.000000 44 38 4
268.000000 -314.000000 65034.000000 39 41 1
269.000000 -314.000000 65034.000000 35 42 11
270.000000 -314.000000 65035.000000 36 47 20
271.000000 -314.000000 65035.000000 37 46 10
272.000000 -314.000000 65035.000000 38 45 1
273.000000 -314.000000 65035.000000 39 44 1
274.000000 -314.000000 65035.000000 39 42 1
275.000000 -314.000000 65035.000000 39 49 1
276.000000 -314.000000 65036.000000 34 50 1
277.000000 -314.000000 65035.000000 30 50 1
278.000000 -314.000000 65036.000000 26 56 1
279.000000 -314.000000 65036.000000 23 53 7
280.000000 -314.000000 65037.000000 28 51 13
281.000000 -314.000000 65037.000000 34 49 7
282.000000 -314.000000 65037.000000 37 50 1
283.000000 -314.000000 65036.000000 41 55 1
284.000000 -314.000000 65036.000000 43 58 1
285.000000 -314.000000 65036.000000 45 62 1
286.000000 -314.000000 65036.000000 47 64 1
287.000000 -314.000000 65035.000000 50 69 1
288.000000 -314.000000 65035.000000 52 75 1
289.000000 -314.000000 65035.000000 55 75 1
290.000000 -314.000000 65035.000000 58 79 1
291.000000 -314.000000 65035.000000 62 87 1
292.000000 -314.000000 65033.000000 64 87 1
293.000000 -314.000000 65032.000000 67 87 1
294.000000 -314.000000 65030.000000 67 87 1
295.000000 -314.000000 65029.000000 68 87 6
296.000000 -314.000000 65029.000000 70 87 12
297.000000 -314.000000 65028.000000 73 85 6
298.000000 -314.000000 65026.000000 69 84 1
299.000000 -314.000000 65025.000000 66 76 7
300.000000 -314.000000 65025.000000 65 79 13
301.000000 -314.000000 65023.000000 64 79 7
302.000000 -314.000000 65020.000000 66 79 1
303.000000 -314.000000 65020.000000 68 77 1
304.000000 -314.000000 65020.000000 71 78 1
305.000000 -314.000000 65019.000000 75 82 1
306.000000 -314.000000 65019.000000 75 86 1
307.000000 -314.000000 65018.000000 76 82 1
308.000000 -314.000000 65018.000000 77 78 2
309.000000 -314.000000 65018.000000 78 80 18
252.000000 -315.000000 65028.000000 42 45 1
253.000000 -315.000000 65029.000000 38 46 1
254.000000 -315.000000 65029.000000 34 47 1
255.000000 -315.000000 65029.000000 30 48 1
256.000000 -315.000000 65030.000000 26 51 1
257.000000 -315.000000 65031.000000 22 53 1
258.000000 -315.000000 65032.000000 27 51 1
259.000000 -315.000000 65032.000000 32 49 1
260.000000 -315.000000 65032.000000 30 50 1
261.000000 -315.000000 65032.000000 28 51 1
262.000000 -315.000000 65034.000000 23 47 1
263.000000 -315.000000 65034.000000 17 46 1
264.000000 -315.000000 65034.000000 21 42 1
265.000000 -315.000000 65034.000000 24 39 1
266.000000 -315.000000 65034.000000 31 39 1
267.000000 -315.000000 65034.000000 39 39 1
268.000000 -315.000000 65034.000000 36 41 1
269.000000 -315.000000 65034.000000 34 41 1
270.000000 -315.000000 65035.000000 34 41 1
271.000000 -315.000000 65035.000000 34 41 1
272.000000 -315.000000 65035.000000 37 42 1
273.000000 -315.000000 65035.000000 40 43 1
274.000000 -315.000000 65035.000000 39 46 1
275.000000 -315.000000 65035.000000 39 49 1
276.000000 -315.000000 65035.000000 36 49 1
277.000000 -315.000000 65035.000000 33 50 1
278.000000 -315.000000 65036.000000 30 51 1
279.000000 -315.000000 65036.000000 26 52 13
280.000000 -315.000000 65036.000000 32 50 26
281.000000 -315.000000 65037.000000 37 49 13
282.000000 -315.000000 65037.000000 37 48 1
283.000000 -315.000000 65037.000000 37 56 1
284.000000 -315.000000 65037.000000 41 58 1
285.000000 -315.000000 65036.000000 44 62 1
286.000000 -315.000000 65036.000000 47 65 1
287.000000 -315.000000 65036.000000 49 70 1
288.000000 -315.000000 65035.000000 52 72 1
289.000000 -315.000000 65035.000000 56 75 1
290.000000 -315.000000 65035.000000 58 80 1
291.000000 -315.000000 65035.000000 61 87 1
292.000000 -315.000000 65033.000000 63 87 2
293.000000 -315.000000 65032.000000 65 87 1
294.000000 -315.000000 65030.000000 66 87 1
295.000000 -315.000000 65029.000000 67 89 1
296.000000 -315.000000 65029.000000 67 87 1
297.000000 -315.000000 65029.000000 68 88 1
298.000000 -315.000000 65026.000000 66 82 1
299.000000 -315.000000 65025.000000 63 77 2
300.000000 -315.000000 65025.000000 59 77 3
301.000000 -315.000000 65023.000000 55 77 2
302.000000 -315.000000 65020.000000 59 77 1
303.000000 -315.000000 65020.000000 63 77 1
304.000000 -315.000000 65020.000000 68 77 2
305.000000 -315.000000 65019.000000 73 85 2
306.000000 -315.000000 65018.000000 75 85 2
307.000000 -315.000000 65018.000000 78 91 2
308.000000 -315.000000 65018.000000 80 84 3
309.000000 -315.000000 65018.000000 82 83 10
310.000000 -315.000000 65018.000000 80 79 17
252.000000 -316.000000 65028.000000 41 46 1
253.000000 -316.000000 65029.000000 37 46 4
254.000000 -316.000000 65029.000000 31 46 8
255.000000 -316.000000 65029.000000 26 47 4
256.000000 -316.000000 65030.000000 21 51 1
257.000000 -316.000000 65031.000000 16 53 1
258.000000 -316.000000 65032.000000 25 53 1
259.000000 -316.000000 65032.000000 34 49 1
260.000000 -316.000000 65032.000000 30 47 1
261.000000 -316.000000 65034.000000 27 47 1
262.000000 -316.000000 65034.000000 20 47 1
263.000000 -316.000000 65035.000000 14 46 1
264.000000 -316.000000 65034.000000 21 43 1
265.000000 -316.000000 65034.000000 29 43 1
266.000000 -316.000000 65034.000000 31 44 1
267.000000 -316.000000 65035.000000 34 42 1
268.000000 -316.000000 65034.000000 34 41 1
269.000000 -316.000000 65034.000000 34 41 2
270.000000 -316.000000 65035.000000 33 42 4
271.000000 -316.000000 65035.000000 32 42 2
272.000000 -316.000000 65035.000000 36 49 1
273.000000 -316.000000 65035.000000 41 52 1
274.000000 -316.000000 65035.000000 40 55 1
275.000000 -316.000000 65035.000000 40 49 1
276.000000 -316.000000 65035.000000 38 49 1
277.000000 -316.000000 65035.000000 37 49 1
278.000000 -316.000000 65036.000000 33 50 1
279.000000 -316.000000 65036.000000 30 47 7
280.000000 -316.000000 65036.000000 35 44 13
281.000000 -316.000000 65037.000000 41 46 7
282.000000 -316.000000 65037.000000 37 46 1
283.000000 -316.000000 65037.000000 34 53 1
284.000000 -316.000000 65037.000000 39 59 2
285.000000 -316.000000 65036.000000 44 62 1
286.000000 -316.000000 65036.000000 46 66 1
287.000000 -316.000000 65036.000000 49 67 1
288.000000 -316.000000 65036.000000 53 69 1
289.000000 -316.000000 65035.000000 57 74 1
290.000000 -316.000000 65035.000000 58 82 1
291.000000 -316.000000 65035.000000 60 87 20
292.000000 -316.000000 65033.000000 61 88 39
293.000000 -316.000000 65032.000000 63 87 20
294.000000 -316.000000 65031.000000 64 88 1
295.000000 -316.000000 65030.000000 66 87 1
296.000000 -316.000000 65029.000000 65 87 1
297.000000 -316.000000 65029.000000 64 87 1
298.000000 -316.000000 65028.000000 62 81 1
299.000000 -316.000000 65027.000000 61 75 1
300.000000 -316.000000 65024.000000 54 76 2
301.000000 -316.000000 65023.000000 47 74 1
302.000000 -316.000000 65020.000000 52 72 1
303.000000 -316.000000 65020.000000 58 74 1
304.000000 -316.000000 65020.000000 64 76 1
305.000000 -316.000000 65019.000000 71 80 1
306.000000 -316.000000 65018.000000 75 84 2
307.000000 -316.000000 65018.000000 80 85 2
308.000000 -316.000000 65018.000000 83 86 2
309.000000 -316.000000 65018.000000 87 81 7
310.000000 -316.000000 65018.000000 82 77 13
253.000000 -317.000000 65029.000000 35 43 8
254.000000 -317.000000 65029.000000 32 46 15
255.000000 -317.000000 65029.000000 29 46 8
256.000000 -317.000000 65030.000000 26 48 1
257.000000 -317.000000 65032.000000 22 54 1
258.000000 -317.000000 65032.000000 28 52 1
259.000000 -317.000000 65032.000000 33 50 1
260.000000 -317.000000 65032.000000 32 48 2
261.000000 -317.000000 65034.000000 31 49 1
262.000000 -317.000000 65034.000000 25 47 1
263.000000 -317.000000 65034.000000 20 46 1
264.000000 -317.000000 65034.000000 29 46 1
265.000000 -317.000000 65034.000000 38 46 1
266.000000 -317.000000 65034.000000 36 45 1
267.000000 -317.000000 65035.000000 34 47 1
268.000000 -317.000000 65034.000000 35 46 1
269.000000 -317.000000 65034.000000 36 46 4
270.000000 -317.000000 65035.000000 34 42 7
271.000000 -317.000000 65035.000000 33 44 4
272.000000 -317.000000 65035.000000 34 48 1
273.000000 -317.000000 65035.000000 36 51 1
274.000000 -317.000000 65035.000000 36 50 2
275.000000 -317.000000 65035.000000 37 50 1
276.000000 -317.000000 65035.000000 37 49 1
277.000000 -317.000000 65035.000000 38 49 1
278.000000 -317.000000 65036.000000 35 47 1
279.000000 -317.000000 65036.000000 32 44 1
280.000000 -317.000000 65037.000000 34 43 1
281.000000 -317.000000 65037.000000 37 47 1
282.000000 -317.000000 65037.000000 37 48 1
283.000000 -317.000000 65037.000000 37 50 2
284.000000 -317.000000 65037.000000 40 58 4
285.000000 -317.000000 65037.000000 43 63 2
286.000000 -317.000000 65037.000000 46 63 1
287.000000 -317.000000 65036.000000 49 63 1
288.000000 -317.000000 65036.000000 51 68 1
289.000000 -317.000000 65036.000000 53 74 1
290.000000 -317.000000 65035.000000 56 81 1
291.000000 -317.000000 65035.000000 58 87 38
292.000000 -317.000000 65033.000000 60 87 76
293.000000 -317.000000 65032.000000 61 87 38
294.000000 -317.000000 65031.000000 66 87 1
295.000000 -317.000000 65030.000000 70 87 1
296.000000 -317.000000 65029.000000 69 87 1
297.000000 -317.000000 65029.000000 68 87 1
298.000000 -317.000000 65028.000000 67 82 1
299.000000 -317.000000 65027.000000 66 73 1
300.000000 -317.000000 65025.000000 61 79 1
301.000000 -317.000000 65023.000000 56 85 1
302.000000 -317.000000 65020.000000 59 80 1
303.000000 -317.000000 65020.000000 62 66 1
304.000000 -317.000000 65019.000000 67 71 1
305.000000 -317.000000 65019.000000 73 76 1
306.000000 -317.000000 65018.000000 75 83 2
307.000000 -317.000000 65018.000000 78 80 1
308.000000 -317.000000 65017.000000 80 80 1
309.000000 -317.000000 65017.000000 82 80 5
310.000000 -317.000000 65017.000000 80 79 9
253.000000 -318.000000 65029.000000 33 46 4
254.000000 -318.000000 65029.000000 33 47 8
255.000000 -318.000000 65029.000000 33 45 4
256.000000 -318.000000 65030.000000 31 45 1
257.000000 -318.000000 65032.000000 29 48 1
258.000000 -318.000000 65032.000000 31 51 1
259.000000 -318.000000 65032.000000 33 48 1
260.000000 -318.000000 65033.000000 34 46 1
261.000000 -318.000000 65034.000000 36 48 1
262.000000 -318.000000 65034.000000 31 51 1
263.000000 -318.000000 65034.000000 26 52 1
264.000000 -318.000000 65034.000000 36 53 2
265.000000 -318.000000 65034.000000 47 48 1
266.000000 -318.000000 65034.000000 40 43 1
267.000000 -318.000000 65035.000000 34 43 1
268.000000 -318.000000 65034.000000 36 44 1
269.000000 -318.000000 65035.000000 38 43 2
270.000000 -318.000000 65035.000000 36 43 4
271.000000 -318.000000 65035.000000 34 44 2
272.000000 -318.000000 65035.000000 32 48 1
273.000000 -318.000000 65035.000000 31 48 1
274.000000 -318.000000 65035.000000 32 49 1
275.000000 -318.000000 65035.000000 34 46 1
276.000000 -318.000000 65036.000000 36 39 1
277.000000 -318.000000 65036.000000 39 44 1
278.000000 -318.000000 65036.000000 36 45 1
279.000000 -318.000000 65036.000000 34 44 1
280.000000 -318.000000 65037.000000 33 43 1
281.000000 -318.000000 65037.000000 33 49 1
282.000000 -318.000000 65037.000000 37 49 1
283.000000 -318.000000 65037.000000 41 51 1
284.000000 -318.000000 65037.000000 42 58 2
285.000000 -318.000000 65036.000000 43 59 1
286.000000 -318.000000 65036.000000 46 61 1
287.000000 -318.000000 65036.000000 49 64 1
288.000000 -318.000000 65036.000000 49 67 1
289.000000 -318.000000 65036.000000 50 76 1
290.000000 -318.000000 65035.000000 53 81 1
291.000000 -318.000000 65035.000000 57 87 19
292.000000 -318.000000 65034.000000 58 87 38
293.000000 -318.000000 65033.000000 60 86 19
294.000000 -318.000000 65032.000000 67 86 1
295.000000 -318.000000 65031.000000 75 87 1
296.000000 -318.000000 65029.000000 73 87 1
297.000000 -318.000000 65029.000000 72 87 1
298.000000 -318.000000 65028.000000 71 83 2
299.000000 -318.000000 65027.000000 71 87 1
300.000000 -318.000000 65025.000000 68 91 1
301.000000 -318.000000 65025.000000 66 90 10
302.000000 -318.000000 65022.000000 66 89 20
303.000000 -318.000000 65020.000000 66 91 10
304.000000 -318.000000 65020.000000 70 94 1
305.000000 -318.000000 65019.000000 75 88 1
306.000000 -318.000000 65019.000000 75 82 1
307.000000 -318.000000 65019.000000 76 82 2
308.000000 -318.000000 65018.000000 76 82 2
309.000000 -318.000000 65018.000000 77 81 4
310.000000 -318.000000 65018.000000 77 80 5
253.000000 -319.000000 65029.000000 19 38 1
254.000000 -319.000000 65029.000000 27 41 1
255.000000 -319.000000 65030.000000 36 44 1
256.000000 -319.000000 65030.000000 32 43 1
257.000000 -319.000000 65032.000000 28 42 1
258.000000 -319.000000 65032.000000 30 43 1
259.000000 -319.000000 65032.000000 31 44 1
260.000000 -319.000000 65032.000000 35 43 1
261.000000 -319.000000 65034.000000 40 42 1
262.000000 -319.000000 65034.000000 30 46 1
263.000000 -319.000000 65034.000000 21 50 2
264.000000 -319.000000 65033.000000 22 40 4
265.000000 -319.000000 65033.000000 24 31 2
266.000000 -319.000000 65034.000000 27 34 1
267.000000 -319.000000 65034.000000 30 37 1
268.000000 -319.000000 65035.000000 38 40 2
269.000000 -319.000000 65035.000000 46 43 1
270.000000 -319.000000 65035.000000 40 43 1
271.000000 -319.000000 65035.000000 34 45 1
272.000000 -319.000000 65035.000000 31 48 1
273.000000 -319.000000 65035.000000 29 48 1
274.000000 -319.000000 65035.000000 28 45 1
275.000000 -319.000000 65035.000000 27 42 1
276.000000 -319.000000 65036.000000 32 42 1
277.000000 -319.000000 65036.000000 38 43 1
278.000000 -319.000000 65036.000000 37 47 1
279.000000 -319.000000 65036.000000 36 49 1
280.000000 -319.000000 65037.000000 36 50 1
281.000000 -319.000000 65038.000000 36 52 1
282.000000 -319.000000 65038.000000 36 52 1
283.000000 -319.000000 65038.000000 37 53 1
284.000000 -319.000000 65037.000000 39 56 1
285.000000 -319.000000 65037.000000 42 59 1
286.000000 -319.000000 65037.000000 45 61 1
287.000000 -319.000000 65036.000000 48 65 1
288.000000 -319.000000 65036.000000 49 71 1
289.000000 -319.000000 65036.000000 50 78 1
290.000000 -319.000000 65035.000000 53 81 1
291.000000 -319.000000 65035.000000 57 88 1
292.000000 -319.000000 65034.000000 59 88 1
293.000000 -319.000000 65033.000000 61 89 1
294.000000 -319.000000 65032.000000 67 88 1
295.000000 -319.000000 65031.000000 72 88 1
296.000000 -319.000000 65029.000000 72 87 1
297.000000 -319.000000 65029.000000 72 87 2
298.000000 -319.000000 65028.000000 74 87 3
299.000000 -319.000000 65027.000000 77 88 2
300.000000 -319.000000 65027.000000 75 92 1
301.000000 -319.000000 65023.000000 73 95 20
302.000000 -319.000000 65022.000000 73 94 39
303.000000 -319.000000 65020.000000 73 94 20
304.000000 -319.000000 65020.000000 77 92 1
305.000000 -319.000000 65019.000000 81 90 1
306.000000 -319.000000 65019.000000 78 87 1
307.000000 -319.000000 65018.000000 76 85 2
308.000000 -319.000000 65017.000000 75 84 4
309.000000 -319.000000 65017.000000 75 84 3
310.000000 -319.000000 65017.000000 75 82 2
251.000000 -320.000000 65029.000000 33 42 1
252.000000 -320.000000 65028.000000 19 39 1
253.000000 -320.000000 65029.000000 6 37 1
254.000000 -320.000000 65029.000000 22 36 1
255.000000 -320.000000 65030.000000 39 39 1
256.000000 -320.000000 65031.000000 33 42 1
257.000000 -320.000000 65032.000000 28 40 1
258.000000 -320.000000 65032.000000 29 46 1
259.000000 -320.000000 65032.000000 30 45 1
260.000000 -320.000000 65032.000000 37 39 1
261.000000 -320.000000 65034.000000 44 36 1
262.000000 -320.000000 65034.000000 30 33 1
263.000000 -320.000000 65034.000000 16 23 1
264.000000 -320.000000 65033.000000 9 14 2
265.000000 -320.000000 65033.000000 2 18 2
266.000000 -320.000000 65034.000000 14 23 1
267.000000 -320.000000 65034.000000 26 25 2
268.000000 -320.000000 65035.000000 40 53 3
269.000000 -320.000000 65035.000000 55 43 2
270.000000 -320.000000 65035.000000 44 44 1
271.000000 -320.000000 65035.000000 34 46 1
272.000000 -320.000000 65035.000000 31 49 1
273.000000 -320.000000 65035.000000 28 42 1
274.000000 -320.000000 65035.000000 24 36 1
275.000000 -320.000000 65035.000000 21 41 1
276.000000 -320.000000 65035.000000 29 47 1
277.000000 -320.000000 65036.000000 37 46 1
278.000000 -320.000000 65036.000000 38 50 1
279.000000 -320.000000 65036.000000 39 51 11
280.000000 -320.000000 65037.000000 39 53 21
281.000000 -320.000000 65038.000000 39 52 11
282.000000 -320.000000 65038.000000 36 52 1
283.000000 -320.000000 65038.000000 34 53 1
284.000000 -320.000000 65037.000000 37 54 1
285.000000 -320.000000 65037.000000 41 57 1
286.000000 -320.000000 65037.000000 44 61 1
287.000000 -320.000000 65036.000000 47 62 1
288.000000 -320.000000 65036.000000 48 76 1
289.000000 -320.000000 65036.000000 50 77 1
290.000000 -320.000000 65035.000000 54 81 1
291.000000 -320.000000 65035.000000 58 88 1
292.000000 -320.000000 65034.000000 60 92 1
293.000000 -320.000000 65033.000000 63 90 1
294.000000 -320.000000 65033.000000 66 89 1
295.000000 -320.000000 65032.000000 70 89 1
296.000000 -320.000000 65030.000000 71 89 1
297.000000 -320.000000 65030.000000 72 88 6
298.000000 -320.000000 65028.000000 77 87 11
299.000000 -320.000000 65027.000000 83 90 6
300.000000 -320.000000 65025.000000 81 94 1
301.000000 -320.000000 65023.000000 80 94 11
302.000000 -320.000000 65023.000000 80 95 20
303.000000 -320.000000 65020.000000 80 92 11
304.000000 -320.000000 65020.000000 84 91 1
305.000000 -320.000000 65019.000000 88 93 12
306.000000 -320.000000 65019.000000 82 96 24
307.000000 -320.000000 65018.000000 76 89 13
308.000000 -320.000000 65018.000000 74 85 2
309.000000 -320.000000 65017.000000 73 85 2
310.000000 -320.000000 65017.000000 74 85 1
311.000000 -320.000000 65017.000000 75 78 13
251.000000 -321.000000 65029.000000 31 40 1
252.000000 -321.000000 65028.000000 24 35 1
253.000000 -321.000000 65029.000000 16 27 1
254.000000 -321.000000 65029.000000 22 26 2
255.000000 -321.000000 65030.000000 28 25 2
256.000000 -321.000000 65031.000000 26 32 2
257.000000 -321.000000 65032.000000 24 39 2
258.000000 -321.000000 65032.000000 26 43 2
259.000000 -321.000000 65032.000000 29 47 1
260.000000 -321.000000 65032.000000 30 40 1
261.000000 -321.000000 65034.000000 32 34 1
262.000000 -321.000000 65034.000000 26 27 1
263.000000 -321.000000 65034.000000 19 21 1
264.000000 -321.000000 65034.000000 15 16 1
265.000000 -321.000000 65034.000000 11 12 1
266.000000 -321.000000 65034.000000 15 12 2
267.000000 -321.000000 65034.000000 19 13 3
268.000000 -321.000000 65035.000000 27 28 4
269.000000 -321.000000 65035.000000 36 44 2
270.000000 -321.000000 65035.000000 31 41 1
271.000000 -321.000000 65035.000000 25 38 1
272.000000 -321.000000 65035.000000 24 34 1
273.000000 -321.000000 65035.000000 23 30 1
274.000000 -321.000000 65035.000000 17 27 1
275.000000 -321.000000 65035.000000 12 24 1
276.000000 -321.000000 65035.000000 20 35 1
277.000000 -321.000000 65036.000000 28 46 1
278.000000 -321.000000 65036.000000 31 44 1
279.000000 -321.000000 65036.000000 34 42 21
280.000000 -321.000000 65037.000000 33 42 41
281.000000 -321.000000 65038.000000 32 42 21
282.000000 -321.000000 65037.000000 31 43 1
283.000000 -321.000000 65038.000000 30 44 1
284.000000 -321.000000 65037.000000 33 47 1
285.000000 -321.000000 65037.000000 37 51 1
286.000000 -321.000000 65037.000000 39 55 1
287.000000 -321.000000 65037.000000 41 60 1
288.000000 -321.000000 65036.000000 45 68 1
289.000000 -321.000000 65036.000000 49 76 1
290.000000 -321.000000 65036.000000 52 81 2
291.000000 -321.000000 65035.000000 56 89 1
292.000000 -321.000000 65034.000000 59 90 1
293.000000 -321.000000 65034.000000 63 92 1
294.000000 -321.000000 65033.000000 68 88 1
295.000000 -321.000000 65033.000000 74 89 1
296.000000 -321.000000 65031.000000 72 89 1
297.000000 -321.000000 65031.000000 71 94 10
298.000000 -321.000000 65028.000000 75 93 20
299.000000 -321.000000 65026.000000 78 93 11
300.000000 -321.000000 65025.000000 77 93 2
301.000000 -321.000000 65023.000000 77 93 2
302.000000 -321.000000 65021.000000 76 91 2
303.000000 -321.000000 65020.000000 75 90 2
304.000000 -321.000000 65020.000000 77 94 2
305.000000 -321.000000 65019.000000 79 98 24
306.000000 -321.000000 65018.000000 74 96 47
307.000000 -321.000000 65018.000000 69 94 24
308.000000 -321.000000 65017.000000 70 91 1
309.000000 -321.000000 65017.000000 72 89 1
310.000000 -321.000000 65017.000000 73 86 1
311.000000 -321.000000 65017.000000 74 79 1
252.000000 -322.000000 65029.000000 28 32 1
253.000000 -322.000000 65029.000000 27 29 1
254.000000 -322.000000 65029.000000 22 23 1
255.000000 -322.000000 65030.000000 18 23 1
256.000000 -322.000000 65032.000000 19 23 1
257.000000 -322.000000 65032.000000 20 34 5
258.000000 -322.000000 65032.000000 24 41 10
259.000000 -322.000000 65032.000000 28 41 5
260.000000 -322.000000 65033.000000 24 41 1
261.000000 -322.000000 65034.000000 21 32 1
262.000000 -322.000000 65034.000000 22 21 1
263.000000 -322.000000 65034.000000 23 23 1
264.000000 -322.000000 65034.000000 22 25 2
265.000000 -322.000000 65033.000000 21 18 1
266.000000 -322.000000 65034.000000 16 12 1
267.000000 -322.000000 65034.000000 12 14 2
268.000000 -322.000000 65035.000000 15 17 2
269.000000 -322.000000 65035.000000 18 12 1
270.000000 -322.000000 65035.000000 17 7 1
271.000000 -322.000000 65035.000000 17 14 4
272.000000 -322.000000 65035.000000 18 21 7
273.000000 -322.000000 65036.000000 19 20 4
274.000000 -322.000000 65035.000000 11 20 1
275.000000 -322.000000 65035.000000 3 15 1
276.000000 -322.000000 65036.000000 11 10 1
277.000000 -322.000000 65036.000000 19 26 1
278.000000 -322.000000 65037.000000 24 43 1
279.000000 -322.000000 65036.000000 29 38 11
280.000000 -322.000000 65037.000000 27 33 21
281.000000 -322.000000 65037.000000 26 29 11
282.000000 -322.000000 65037.000000 26 26 1
283.000000 -322.000000 65037.000000 26 43 1
284.000000 -322.000000 65037.000000 30 44 1
285.000000 -322.000000 65037.000000 34 50 1
286.000000 -322.000000 65037.000000 34 47 1
287.000000 -322.000000 65036.000000 35 61 1
288.000000 -322.000000 65036.000000 41 58 1
289.000000 -322.000000 65036.000000 48 70 1
290.000000 -322.000000 65035.000000 51 82 1
291.000000 -322.000000 65035.000000 54 87 1
292.000000 -322.000000 65034.000000 58 89 1
293.000000 -322.000000 65034.000000 63 88 1
294.000000 -322.000000 65034.000000 70 87 1
295.000000 -322.000000 65033.000000 78 88 1
296.000000 -322.000000 65031.000000 74 89 1
297.000000 -322.000000 65031.000000 71 90 7
298.000000 -322.000000 65028.000000 72 91 13
299.000000 -322.000000 65026.000000 74 91 7
300.000000 -322.000000 65025.000000 74 92 1
301.000000 -322.000000 65023.000000 74 89 1
302.000000 -322.000000 65022.000000 72 87 1
303.000000 -322.000000 65020.000000 71 83 1
304.000000 -322.000000 65020.000000 71 79 1
305.000000 -322.000000 65019.000000 71 80 12
306.000000 -322.000000 65019.000000 67 81 24
307.000000 -322.000000 65018.000000 63 86 12
308.000000 -322.000000 65018.000000 67 91 1
309.000000 -322.000000 65017.000000 71 89 1
310.000000 -322.000000 65017.000000 72 88 1
311.000000 -322.000000 65017.000000 74 78 2
251.000000 -323.000000 65029.000000 34 41 1
252.000000 -323.000000 65029.000000 31 36 1
253.000000 -323.000000 65029.000000 28 31 1
254.000000 -323.000000 65029.000000 25 32 1
255.000000 -323.000000 65030.000000 22 33 1
256.000000 -323.000000 65032.000000 19 22 1
257.000000 -323.000000 65032.000000 17 30 9
258.000000 -323.000000 65033.000000 23 37 18
259.000000 -323.000000 65032.000000 29 43 9
260.000000 -323.000000 65033.000000 26 37 1
261.000000 -323.000000 65033.000000 23 30 1
262.000000 -323.000000 65034.000000 23 29 1
263.000000 -323.000000 65034.000000 23 28 2
264.000000 -323.000000 65034.000000 29 30 3
265.000000 -323.000000 65034.000000 35 32 2
266.000000 -323.000000 65034.000000 24 25 1
267.000000 -323.000000 65034.000000 13 19 1
268.000000 -323.000000 65035.000000 12 16 1
269.000000 -323.000000 65035.000000 10 23 1
270.000000 -323.000000 65035.000000 21 22 1
271.000000 -323.000000 65035.000000 31 22 7
272.000000 -323.000000 65035.000000 27 24 14
273.000000 -323.000000 65036.000000 23 27 7
274.000000 -323.000000 65036.000000 16 24 1
275.000000 -323.000000 65035.000000 9 10 1
276.000000 -323.000000 65036.000000 12 11 1
277.000000 -323.000000 65036.000000 15 12 1
278.000000 -323.000000 65037.000000 19 21 1
279.000000 -323.000000 65037.000000 24 30 1
280.000000 -323.000000 65037.000000 22 24 2
281.000000 -323.000000 65038.000000 20 18 1
282.000000 -323.000000 65038.000000 24 26 1
283.000000 -323.000000 65037.000000 28 42 1
284.000000 -323.000000 65037.000000 34 46 1
285.000000 -323.000000 65037.000000 39 50 1
286.000000 -323.000000 65037.000000 40 56 1
287.000000 -323.000000 65036.000000 41 63 1
288.000000 -323.000000 65036.000000 44 61 1
289.000000 -323.000000 65036.000000 48 65 1
290.000000 -323.000000 65035.000000 51 78 1
291.000000 -323.000000 65035.000000 54 85 1
292.000000 -323.000000 65034.000000 59 86 1
293.000000 -323.000000 65034.000000 63 87 1
294.000000 -323.000000 65034.000000 69 90 1
295.000000 -323.000000 65033.000000 75 95 1
296.000000 -323.000000 65032.000000 72 90 1
297.000000 -323.000000 65032.000000 69 87 4
298.000000 -323.000000 65028.000000 68 85 7
299.000000 -323.000000 65026.000000 67 83 4
300.000000 -323.000000 65025.000000 66 84 1
301.000000 -323.000000 65023.000000 66 85 1
302.000000 -323.000000 65022.000000 60 78 1
303.000000 -323.000000 65020.000000 55 71 1
304.000000 -323.000000 65020.000000 58 73 1
305.000000 -323.000000 65019.000000 62 76 1
306.000000 -323.000000 65019.000000 60 76 1
307.000000 -323.000000 65018.000000 58 77 1
308.000000 -323.000000 65018.000000 56 78 1
309.000000 -323.000000 65017.000000 55 80 1
310.000000 -323.000000 65017.000000 62 79 1
251.000000 -324.000000 65029.000000 38 42 5
252.000000 -324.000000 65028.000000 34 43 9
253.000000 -324.000000 65029.000000 30 33 5
254.000000 -324.000000 65029.000000 28 37 1
255.000000 -324.000000 65030.000000 27 28 1
256.000000 -324.000000 65032.000000 20 22 1
257.000000 -324.000000 65032.000000 14 27 5
258.000000 -324.000000 65033.000000 22 33 9
259.000000 -324.000000 65033.000000 30 33 5
260.000000 -324.000000 65033.000000 28 33 1
261.000000 -324.000000 65033.000000 26 28 1
262.000000 -324.000000 65034.000000 25 26 1
263.000000 -324.000000 65034.000000 24 26 5
264.000000 -324.000000 65034.000000 37 73 10
265.000000 -324.000000 65034.000000 50 38 5
266.000000 -324.000000 65034.000000 32 27 1
267.000000 -324.000000 65034.000000 15 21 1
268.000000 -324.000000 65035.000000 9 16 1
269.000000 -324.000000 65035.000000 3 20 1
270.000000 -324.000000 65035.000000 24 28 1
271.000000 -324.000000 65035.000000 46 26 4
272.000000 -324.000000 65035.000000 36 39 7
273.000000 -324.000000 65036.000000 27 31 4
274.000000 -324.000000 65036.000000 21 28 1
275.000000 -324.000000 65035.000000 15 22 1
276.000000 -324.000000 65036.000000 13 16 1
277.000000 -324.000000 65036.000000 12 14 1
278.000000 -324.000000 65037.000000 15 14 1
279.000000 -324.000000 65037.000000 19 16 1
280.000000 -324.000000 65037.000000 17 19 1
281.000000 -324.000000 65038.000000 15 19 2
282.000000 -324.000000 65038.000000 23 27 2
283.000000 -324.000000 65038.000000 31 40 4
284.000000 -324.000000 65037.000000 38 48 6
285.000000 -324.000000 65037.000000 45 55 3
286.000000 -324.000000 65037.000000 46 63 1
287.000000 -324.000000 65036.000000 47 61 1
288.000000 -324.000000 65036.000000 48 60 1
289.000000 -324.000000 65035.000000 49 63 1
290.000000 -324.000000 65035.000000 52 75 1
291.000000 -324.000000 65035.000000 55 81 1
292.000000 -324.000000 65035.000000 59 86 1
293.000000 -324.000000 65034.000000 64 88 1
294.000000 -324.000000 65034.000000 68 94 1
295.000000 -324.000000 65033.000000 72 92 1
296.000000 -324.000000 65032.000000 70 91 1
297.000000 -324.000000 65029.000000 68 88 2
298.000000 -324.000000 65026.000000 64 86 4
299.000000 -324.000000 65026.000000 60 83 2
300.000000 -324.000000 65025.000000 59 79 1
301.000000 -324.000000 65023.000000 58 82 1
302.000000 -324.000000 65022.000000 48 67 1
303.000000 -324.000000 65020.000000 39 68 1
304.000000 -324.000000 65020.000000 46 69 1
305.000000 -324.000000 65019.000000 54 72 1
306.000000 -324.000000 65019.000000 53 73 1
307.000000 -324.000000 65019.000000 53 75 1
308.000000 -324.000000 65018.000000 46 74 1
309.000000 -324.000000 65018.000000 40 74 1
310.000000 -324.000000 65018.000000 53 74 1
251.000000 -325.000000 65029.000000 34 33 9
252.000000 -325.000000 65028.000000 25 34 18
253.000000 -325.000000 65029.000000 16 35 9
254.000000 -325.000000 65029.000000 21 33 1
255.000000 -325.000000 65030.000000 26 24 1
256.000000 -325.000000 65032.000000 17 22 1
257.000000 -325.000000 65032.000000 8 14 1
258.000000 -325.000000 65033.000000 19 35 1
259.000000 -325.000000 65033.000000 30 44 1
260.000000 -325.000000 65033.000000 28 36 1
261.000000 -325.000000 65033.000000 26 27 1
262.000000 -325.000000 65033.000000 21 26 1
263.000000 -325.000000 65033.000000 16 25 9
264.000000 -325.000000 65033.000000 21 35 17
265.000000 -325.000000 65035.000000 26 45 9
266.000000 -325.000000 65035.000000 19 14 1
267.000000 -325.000000 65035.000000 13 7 1
268.000000 -325.000000 65035.000000 10 16 1
269.000000 -325.000000 65035.000000 7 17 1
270.000000 -325.000000 65035.000000 18 22 1
271.000000 -325.000000 65035.000000 30 31 1
272.000000 -325.000000 65035.000000 27 33 1
273.000000 -325.000000 65036.000000 25 36 1
274.000000 -325.000000 65035.000000 21 28 1
275.000000 -325.000000 65036.000000 18 30 1
276.000000 -325.000000 65036.000000 15 21 1
277.000000 -325.000000 65037.000000 13 14 1
278.000000 -325.000000 65037.000000 14 13 1
279.000000 -325.000000 65037.000000 16 12 1
280.000000 -325.000000 65037.000000 12 18 1
281.000000 -325.000000 65038.000000 8 21 2
282.000000 -325.000000 65038.000000 20 24 4
283.000000 -325.000000 65038.000000 33 39 8
284.000000 -325.000000 65037.000000 39 49 12
285.000000 -325.000000 65037.000000 44 60 6
286.000000 -325.000000 65037.000000 47 58 1
287.000000 -325.000000 65036.000000 51 56 1
288.000000 -325.000000 65036.000000 49 59 1
289.000000 -325.000000 65035.000000 48 62 1
290.000000 -325.000000 65035.000000 51 72 1
291.000000 -325.000000 65035.000000 55 78 1
292.000000 -325.000000 65034.000000 59 84 1
293.000000 -325.000000 65033.000000 64 90 1
294.000000 -325.000000 65033.000000 67 90 1
295.000000 -325.000000 65033.000000 70 90 1
296.000000 -325.000000 65032.000000 70 90 1
297.000000 -325.000000 65028.000000 71 90 1
298.000000 -325.000000 65026.000000 68 87 1
299.000000 -325.000000 65026.000000 65 83 1
300.000000 -325.000000 65025.000000 66 81 1
301.000000 -325.000000 65024.000000 68 80 1
302.000000 -325.000000 65023.000000 59 78 1
303.000000 -325.000000 65021.000000 51 77 1
304.000000 -325.000000 65020.000000 56 74 1
305.000000 -325.000000 65020.000000 62 72 1
306.000000 -325.000000 65019.000000 60 74 1
307.000000 -325.000000 65019.000000 57 76 1
308.000000 -325.000000 65019.000000 52 75 1
309.000000 -325.000000 65018.000000 47 72 1
310.000000 -325.000000 65018.000000 56 72 1
253.000000 -326.000000 65029.000000 3 28 5
254.000000 -326.000000 65029.000000 14 29 1
255.000000 -326.000000 65030.000000 26 26 1
256.000000 -326.000000 65032.000000 14 23 1
257.000000 -326.000000 65033.000000 3 30 1
258.000000 -326.000000 65034.000000 16 37 1
259.000000 -326.000000 65034.000000 30 38 1
260.000000 -326.000000 65034.000000 28 39 1
261.000000 -326.000000 65034.000000 26 32 1
262.000000 -326.000000 65034.000000 17 9 1
263.000000 -326.000000 65034.000000 9 8 5
264.000000 -326.000000 65033.000000 5 7 9
265.000000 -326.000000 65035.000000 2 4 7
266.000000 -326.000000 65035.000000 7 2 5
267.000000 -326.000000 65035.000000 12 9 3
268.000000 -326.000000 65035.000000 11 16 1
269.000000 -326.000000 65035.000000 11 15 1
270.000000 -326.000000 65035.000000 13 14 1
271.000000 -326.000000 65035.000000 15 28 1
272.000000 -326.000000 65036.000000 19 24 1
273.000000 -326.000000 65035.000000 23 34 1
274.000000 -326.000000 65035.000000 22 29 1
275.000000 -326.000000 65036.000000 22 27 1
276.000000 -326.000000 65037.000000 18 26 1
277.000000 -326.000000 65037.000000 14 18 1
278.000000 -326.000000 65038.000000 14 10 1
279.000000 -326.000000 65038.000000 14 12 1
280.000000 -326.000000 65037.000000 7 17 1
281.000000 -326.000000 65038.000000 1 21 1
282.000000 -326.000000 65038.000000 18 21 2
283.000000 -326.000000 65038.000000 36 43 4
284.000000 -326.000000 65037.000000 40 51 6
285.000000 -326.000000 65037.000000 44 59 3
286.000000 -326.000000 65037.000000 49 53 1
287.000000 -326.000000 65037.000000 55 54 1
288.000000 -326.000000 65037.000000 51 53 1
289.000000 -326.000000 65036.000000 47 63 1
290.000000 -326.000000 65035.000000 51 70 1
291.000000 -326.000000 65035.000000 55 79 1
292.000000 -326.000000 65034.000000 59 83 1
293.000000 -326.000000 65033.000000 64 90 1
294.000000 -326.000000 65033.000000 66 92 1
295.000000 -326.000000 65032.000000 69 89 1
296.000000 -326.000000 65031.000000 71 89 1
297.000000 -326.000000 65028.000000 74 89 1
298.000000 -326.000000 65026.000000 72 89 1
299.000000 -326.000000 65026.000000 71 87 2
300.000000 -326.000000 65025.000000 74 86 4
301.000000 -326.000000 65024.000000 78 85 2
302.000000 -326.000000 65024.000000 70 84 1
303.000000 -326.000000 65022.000000 63 78 1
304.000000 -326.000000 65020.000000 67 76 1
305.000000 -326.000000 65020.000000 71 77 1
306.000000 -326.000000 65019.000000 66 82 1
307.000000 -326.000000 65019.000000 62 80 1
308.000000 -326.000000 65019.000000 58 78 1
309.000000 -326.000000 65018.000000 55 75 1
310.000000 -326.000000 65018.000000 60 73 2
311.000000 -326.000000 65018.000000 66 70 9
252.000000 -327.000000 65026.000000 24 33 1
253.000000 -327.000000 65029.000000 17 27 1
254.000000 -327.000000 65029.000000 29 30 1
255.000000 -327.000000 65033.000000 41 34 1
256.000000 -327.000000 65033.000000 31 36 1
257.000000 -327.000000 65034.000000 21 39 1
258.000000 -327.000000 65034.000000 29 40 1
259.000000 -327.000000 65034.000000 38 47 1
260.000000 -327.000000 65035.000000 33 42 2
261.000000 -327.000000 65034.000000 29 38 1
262.000000 -327.000000 65035.000000 24 27 1
263.000000 -327.000000 65035.000000 19 17 1
264.000000 -327.000000 65035.000000 18 9 1
265.000000 -327.000000 65035.000000 16 2 5
266.000000 -327.000000 65035.000000 20 13 9
267.000000 -327.000000 65035.000000 24 25 5
268.000000 -327.000000 65035.000000 27 25 1
269.000000 -327.000000 65035.000000 31 26 1
270.000000 -327.000000 65036.000000 28 25 1
271.000000 -327.000000 65036.000000 25 25 1
272.000000 -327.000000 65037.000000 32 29 1
273.000000 -327.000000 65035.000000 39 33 1
274.000000 -327.000000 65036.000000 35 33 1
275.000000 -327.000000 65036.000000 32 34 1
276.000000 -327.000000 65038.000000 29 33 1
277.000000 -327.000000 65038.000000 26 33 1
278.000000 -327.000000 65038.000000 25 23 1
279.000000 -327.000000 65038.000000 23 13 1
280.000000 -327.000000 65038.000000 20 19 1
281.000000 -327.000000 65038.000000 17 25 1
282.000000 -327.000000 65038.000000 29 36 1
283.000000 -327.000000 65038.000000 40 47 1
284.000000 -327.000000 65037.000000 43 55 1
285.000000 -327.000000 65037.000000 46 59 1
286.000000 -327.000000 65037.000000 49 57 1
287.000000 -327.000000 65037.000000 52 56 1
288.000000 -327.000000 65037.000000 49 60 1
289.000000 -327.000000 65036.000000 46 64 1
290.000000 -327.000000 65035.000000 50 69 1
291.000000 -327.000000 65035.000000 55 80 1
292.000000 -327.000000 65034.000000 58 83 2
293.000000 -327.000000 65033.000000 61 90 1
294.000000 -327.000000 65033.000000 65 89 1
295.000000 -327.000000 65032.000000 69 88 1
296.000000 -327.000000 65031.000000 71 90 1
297.000000 -327.000000 65029.000000 74 92 1
298.000000 -327.000000 65026.000000 71 90 1
299.000000 -327.000000 65026.000000 68 88 4
300.000000 -327.000000 65025.000000 69 85 8
301.000000 -327.000000 65024.000000 70 84 4
302.000000 -327.000000 65024.000000 63 81 1
303.000000 -327.000000 65022.000000 55 79 1
304.000000 -327.000000 65020.000000 60 78 1
305.000000 -327.000000 65020.000000 65 78 1
306.000000 -327.000000 65020.000000 63 80 1
307.000000 -327.000000 65019.000000 61 81 1
308.000000 -327.000000 65019.000000 55 77 1
309.000000 -327.000000 65018.000000 50 77 2
310.000000 -327.000000 65018.000000 58 70 4
311.000000 -327.000000 65018.000000 65 70 12
251.000000 -328.000000 65025.000000 32 38 1
252.000000 -328.000000 65026.000000 31 39 1
253.000000 -328.000000 65029.000000 31 39 1
254.000000 -328.000000 65029.000000 43 39 2
255.000000 -328.000000 65033.000000 56 39 1
256.000000 -328.000000 65034.000000 48 40 1
257.000000 -328.000000 65034.000000 40 42 1
258.000000 -328.000000 65035.000000 43 44 1
259.000000 -328.000000 65035.000000 46 45 1
260.000000 -328.000000 65035.000000 39 46 2
261.000000 -328.000000 65034.000000 33 41 1
262.000000 -328.000000 65035.000000 31 37 1
263.000000 -328.000000 65035.000000 30 33 1
264.000000 -328.000000 65035.000000 30 29 1
265.000000 -328.000000 65035.000000 31 34 3
266.000000 -328.000000 65035.000000 34 39 5
267.000000 -328.000000 65035.000000 37 40 3
268.000000 -328.000000 65035.000000 44 41 1
269.000000 -328.000000 65036.000000 51 37 1
270.000000 -328.000000 65037.000000 43 34 1
271.000000 -328.000000 65036.000000 36 34 1
272.000000 -328.000000 65037.000000 45 34 1
273.000000 -328.000000 65038.000000 55 30 1
274.000000 -328.000000 65036.000000 48 41 1
275.000000 -328.000000 65038.000000 42 35 1
276.000000 -328.000000 65038.000000 40 45 1
277.000000 -328.000000 65038.000000 39 45 1
278.000000 -328.000000 65038.000000 36 46 1
279.000000 -328.000000 65038.000000 33 39 1
280.000000 -328.000000 65038.000000 33 33 1
281.000000 -328.000000 65038.000000 34 30 1
282.000000 -328.000000 65038.000000 39 56 1
283.000000 -328.000000 65038.000000 45 49 1
284.000000 -328.000000 65038.000000 47 63 1
285.000000 -328.000000 65038.000000 49 57 1
286.000000 -328.000000 65038.000000 49 57 1
287.000000 -328.000000 65038.000000 49 56 1
288.000000 -328.000000 65037.000000 47 62 1
289.000000 -328.000000 65037.000000 46 64 1
290.000000 -328.000000 65036.000000 50 68 1
291.000000 -328.000000 65036.000000 55 79 1
292.000000 -328.000000 65034.000000 57 84 1
293.000000 -328.000000 65033.000000 59 84 1
294.000000 -328.000000 65033.000000 64 85 1
295.000000 -328.000000 65032.000000 69 91 1
296.000000 -328.000000 65031.000000 71 92 1
297.000000 -328.000000 65029.000000 74 92 1
298.000000 -328.000000 65026.000000 69 91 1
299.000000 -328.000000 65026.000000 65 90 2
300.000000 -328.000000 65025.000000 64 84 4
301.000000 -328.000000 65024.000000 63 82 2
302.000000 -328.000000 65024.000000 55 77 1
303.000000 -328.000000 65023.000000 48 80 1
304.000000 -328.000000 65020.000000 54 73 1
305.000000 -328.000000 65020.000000 60 79 1
306.000000 -328.000000 65020.000000 60 79 1
307.000000 -328.000000 65020.000000 60 77 1
308.000000 -328.000000 65019.000000 53 76 1
309.000000 -328.000000 65018.000000 46 78 1
310.000000 -328.000000 65018.000000 55 67 2
311.000000 -328.000000 65018.000000 65 72 7
251.000000 -329.000000 65026.000000 34 36 1
252.000000 -329.000000 65026.000000 33 37 1
253.000000 -329.000000 65029.000000 32 38 2
254.000000 -329.000000 65029.000000 40 38 3
255.000000 -329.000000 65033.000000 48 39 2
256.000000 -329.000000 65034.000000 44 36 1
257.000000 -329.000000 65034.000000 40 34 1
258.000000 -329.000000 65035.000000 40 31 1
259.000000 -329.000000 65035.000000 40 29 1
260.000000 -329.000000 65035.000000 34 39 2
261.000000 -329.000000 65035.000000 28 50 1
262.000000 -329.000000 65035.000000 30 29 1
263.000000 -329.000000 65036.000000 33 29 1
264.000000 -329.000000 65035.000000 36 28 1
265.000000 -329.000000 65035.000000 40 28 1
266.000000 -329.000000 65035.000000 38 30 1
267.000000 -329.000000 65035.000000 37 33 1
268.000000 -329.000000 65036.000000 40 33 2
269.000000 -329.000000 65036.000000 43 34 1
270.000000 -329.000000 65037.000000 38 34 1
271.000000 -329.000000 65037.000000 33 35 1
272.000000 -329.000000 65037.000000 41 31 1
273.000000 -329.000000 65038.000000 49 28 1
274.000000 -329.000000 65038.000000 45 32 1
275.000000 -329.000000 65038.000000 42 36 1
276.000000 -329.000000 65038.000000 40 38 1
277.000000 -329.000000 65038.000000 39 41 1
278.000000 -329.000000 65038.000000 36 41 1
279.000000 -329.000000 65038.000000 33 41 1
280.000000 -329.000000 65038.000000 35 38 1
281.000000 -329.000000 65038.000000 37 36 1
282.000000 -329.000000 65038.000000 40 43 1
283.000000 -329.000000 65038.000000 44 51 1
284.000000 -329.000000 65038.000000 46 53 2
285.000000 -329.000000 65038.000000 47 56 1
286.000000 -329.000000 65038.000000 49 56 1
287.000000 -329.000000 65038.000000 51 57 1
288.000000 -329.000000 65038.000000 48 60 1
289.000000 -329.000000 65037.000000 45 64 1
290.000000 -329.000000 65036.000000 48 68 1
291.000000 -329.000000 65036.000000 51 78 1
292.000000 -329.000000 65033.000000 54 80 1
293.000000 -329.000000 65032.000000 57 82 1
294.000000 -329.000000 65032.000000 64 88 1
295.000000 -329.000000 65031.000000 71 94 1
296.000000 -329.000000 65031.000000 73 93 2
297.000000 -329.000000 65030.000000 75 92 1
298.000000 -329.000000 65030.000000 73 92 1
299.000000 -329.000000 65026.000000 71 92 1
300.000000 -329.000000 65025.000000 72 88 1
301.000000 -329.000000 65024.000000 73 80 1
302.000000 -329.000000 65024.000000 68 81 1
303.000000 -329.000000 65022.000000 63 82 1
304.000000 -329.000000 65020.000000 65 81 1
305.000000 -329.000000 65020.000000 67 80 1
306.000000 -329.000000 65020.000000 68 82 1
307.000000 -329.000000 65020.000000 70 85 1
308.000000 -329.000000 65020.000000 62 82 1
309.000000 -329.000000 65019.000000 55 80 1
310.000000 -329.000000 65019.000000 60 77 1
311.000000 -329.000000 65019.000000 65 75 2
251.000000 -330.000000 65026.000000 36 27 1
252.000000 -330.000000 65026.000000 35 21 1
253.000000 -330.000000 65029.000000 34 23 1
254.000000 -330.000000 65032.000000 37 25 2
255.000000 -330.000000 65033.000000 41 25 1
256.000000 -330.000000 65034.000000 41 25 1
257.000000 -330.000000 65034.000000 41 22 1
258.000000 -330.000000 65035.000000 38 20 1
259.000000 -330.000000 65035.000000 35 15 1
260.000000 -330.000000 65035.000000 29 10 1
261.000000 -330.000000 65035.000000 23 16 1
262.000000 -330.000000 65035.000000 29 22 1
263.000000 -330.000000 65036.000000 36 19 1
264.000000 -330.000000 65035.000000 42 17 1
265.000000 -330.000000 65036.000000 49 13 1
266.000000 -330.000000 65035.000000 43 9 1
267.000000 -330.000000 65036.000000 38 14 1
268.000000 -330.000000 65036.000000 37 20 1
269.000000 -330.000000 65036.000000 36 21 1
270.000000 -330.000000 65038.000000 33 22 1
271.000000 -330.000000 65037.000000 30 21 1
272.000000 -330.000000 65038.000000 36 21 1
273.000000 -330.000000 65038.000000 43 21 6
274.000000 -330.000000 65038.000000 43 21 11
275.000000 -330.000000 65038.000000 43 21 6
276.000000 -330.000000 65038.000000 41 21 1
277.000000 -330.000000 65038.000000 39 25 1
278.000000 -330.000000 65038.000000 36 30 2
279.000000 -330.000000 65039.000000 34 28 4
280.000000 -330.000000 65039.000000 37 26 7
281.000000 -330.000000 65039.000000 40 28 6
282.000000 -330.000000 65038.000000 42 30 5
283.000000 -330.000000 65038.000000 44 35 3
284.000000 -330.000000 65038.000000 45 40 1
285.000000 -330.000000 65038.000000 46 52 1
286.000000 -330.000000 65038.000000 49 53 1
287.000000 -330.000000 65038.000000 53 58 1
288.000000 -330.000000 65038.000000 49 59 1
289.000000 -330.000000 65037.000000 45 65 1
290.000000 -330.000000 65037.000000 46 69 1
291.000000 -330.000000 65036.000000 47 72 1
292.000000 -330.000000 65034.000000 51 76 1
293.000000 -330.000000 65032.000000 56 81 1
294.000000 -330.000000 65032.000000 64 98 1
295.000000 -330.000000 65031.000000 73 93 6
296.000000 -330.000000 65031.000000 74 94 11
297.000000 -330.000000 65031.000000 76 95 6
298.000000 -330.000000 65026.000000 76 96 1
299.000000 -330.000000 65026.000000 77 94 1
300.000000 -330.000000 65026.000000 80 93 1
301.000000 -330.000000 65025.000000 84 99 4
302.000000 -330.000000 65024.000000 81 106 7
303.000000 -330.000000 65022.000000 78 89 4
304.000000 -330.000000 65020.000000 76 89 1
305.000000 -330.000000 65020.000000 75 88 1
306.000000 -330.000000 65020.000000 77 88 2
307.000000 -330.000000 65020.000000 80 89 1
308.000000 -330.000000 65020.000000 72 90 1
309.000000 -330.000000 65019.000000 64 88 1
310.000000 -330.000000 65019.000000 64 86 1
311.000000 -330.000000 65019.000000 65 74 6
312.000000 -330.000000 65019.000000 71 74 12
251.000000 -331.000000 65026.000000 37 13 1
252.000000 -331.000000 65026.000000 37 12 1
253.000000 -331.000000 65030.000000 38 12 1
254.000000 -331.000000 65032.000000 40 13 1
255.000000 -331.000000 65032.000000 42 15 1
256.000000 -331.000000 65034.000000 42 16 1
257.000000 -331.000000 65034.000000 42 17 1
258.000000 -331.000000 65034.000000 39 14 1
259.000000 -331.000000 65035.000000 36 4 1
260.000000 -331.000000 65035.000000 32 4 1
261.000000 -331.000000 65035.000000 28 4 1
262.000000 -331.000000 65035.000000 32 3 1
263.000000 -331.000000 65036.000000 36 3 1
264.000000 -331.000000 65036.000000 40 4 1
265.000000 -331.000000 65036.000000 45 6 1
266.000000 -331.000000 65036.000000 42 7 1
267.000000 -331.000000 65036.000000 39 8 1
268.000000 -331.000000 65035.000000 38 6 1
269.000000 -331.000000 65037.000000 37 5 1
270.000000 -331.000000 65038.000000 36 8 1
271.000000 -331.000000 65038.000000 36 12 1
272.000000 -331.000000 65038.000000 40 12 1
273.000000 -331.000000 65038.000000 45 12 11
274.000000 -331.000000 65038.000000 44 11 22
275.000000 -331.000000 65038.000000 44 11 12
276.000000 -331.000000 65038.000000 43 11 2
277.000000 -331.000000 65038.000000 42 12 2
