ply
    format ascii 1.0
    element vertex 10408
    property float x
    property float y
    property float z
    property uchar red
    property uchar green
    property uchar blue
    end_header
264.000000 -271.000000 65029.000000 31 27 1
265.000000 -271.000000 65029.000000 29 36 1
266.000000 -271.000000 65029.000000 34 41 1
267.000000 -271.000000 65029.000000 40 44 1
268.000000 -271.000000 65029.000000 39 47 1
269.000000 -271.000000 65029.000000 39 54 1
270.000000 -271.000000 65029.000000 41 51 1
271.000000 -271.000000 65029.000000 43 47 1
272.000000 -271.000000 65029.000000 48 47 1
273.000000 -271.000000 65029.000000 54 51 1
274.000000 -271.000000 65029.000000 45 48 1
275.000000 -271.000000 65029.000000 36 46 1
276.000000 -271.000000 65029.000000 29 44 1
277.000000 -271.000000 65029.000000 21 39 1
278.000000 -271.000000 65029.000000 18 42 1
279.000000 -271.000000 65029.000000 16 46 1
280.000000 -271.000000 65029.000000 24 45 1
281.000000 -271.000000 65030.000000 32 44 1
282.000000 -271.000000 65030.000000 32 43 1
283.000000 -271.000000 65031.000000 32 43 1
284.000000 -271.000000 65030.000000 33 42 1
285.000000 -271.000000 65031.000000 34 42 1
286.000000 -271.000000 65031.000000 28 42 1
287.000000 -271.000000 65031.000000 22 42 1
288.000000 -271.000000 65031.000000 26 40 1
289.000000 -271.000000 65031.000000 30 39 1
290.000000 -271.000000 65032.000000 27 40 1
291.000000 -271.000000 65031.000000 25 42 1
292.000000 -271.000000 65030.000000 33 44 1
293.000000 -271.000000 65030.000000 41 47 1
294.000000 -271.000000 65029.000000 43 52 1
295.000000 -271.000000 65029.000000 46 57 8
296.000000 -271.000000 65029.000000 50 64 15
297.000000 -271.000000 65029.000000 53 72 8
298.000000 -271.000000 65029.000000 58 80 1
299.000000 -271.000000 65028.000000 63 89 1
300.000000 -271.000000 65028.000000 68 95 1
301.000000 -271.000000 65028.000000 73 97 1
302.000000 -271.000000 65021.000000 74 97 1
303.000000 -271.000000 65021.000000 75 97 1
304.000000 -271.000000 65020.000000 78 97 1
305.000000 -271.000000 65020.000000 81 98 3
306.000000 -271.000000 65017.000000 84 98 5
307.000000 -271.000000 65017.000000 88 91 6
308.000000 -271.000000 65010.000000 85 88 8
309.000000 -271.000000 65010.000000 83 85 6
310.000000 -271.000000 65009.000000 92 96 4
311.000000 -271.000000 65009.000000 102 101 3
312.000000 -271.000000 65009.000000 78 91 3
313.000000 -271.000000 65007.000000 53 82 4
314.000000 -271.000000 65007.000000 65 80 5
315.000000 -271.000000 65007.000000 77 79 10
258.000000 -272.000000 65025.000000 38 47 1
259.000000 -272.000000 65026.000000 38 44 1
260.000000 -272.000000 65026.000000 35 42 1
261.000000 -272.000000 65026.000000 33 41 1
262.000000 -272.000000 65029.000000 34 29 1
263.000000 -272.000000 65029.000000 35 29 1
264.000000 -272.000000 65029.000000 35 30 1
265.000000 -272.000000 65029.000000 36 38 4
266.000000 -272.000000 65029.000000 38 43 7
267.000000 -272.000000 65029.000000 41 45 4
268.000000 -272.000000 65029.000000 42 49 1
269.000000 -272.000000 65028.000000 44 48 1
270.000000 -272.000000 65029.000000 44 48 1
271.000000 -272.000000 65029.000000 45 48 1
272.000000 -272.000000 65029.000000 46 49 1
273.000000 -272.000000 65029.000000 48 51 1
274.000000 -272.000000 65029.000000 43 52 1
275.000000 -272.000000 65029.000000 38 48 1
276.000000 -272.000000 65029.000000 30 42 1
277.000000 -272.000000 65029.000000 22 43 1
278.000000 -272.000000 65029.000000 22 45 1
279.000000 -272.000000 65029.000000 22 46 1
280.000000 -272.000000 65029.000000 31 47 1
281.000000 -272.000000 65029.000000 41 46 1
282.000000 -272.000000 65030.000000 42 46 1
283.000000 -272.000000 65031.000000 44 46 1
284.000000 -272.000000 65030.000000 44 46 2
285.000000 -272.000000 65031.000000 44 46 1
286.000000 -272.000000 65031.000000 41 46 1
287.000000 -272.000000 65031.000000 39 46 1
288.000000 -272.000000 65031.000000 41 46 1
289.000000 -272.000000 65032.000000 44 47 1
290.000000 -272.000000 65032.000000 44 49 1
291.000000 -272.000000 65031.000000 44 52 1
292.000000 -272.000000 65030.000000 49 55 1
293.000000 -272.000000 65030.000000 54 62 1
294.000000 -272.000000 65029.000000 55 70 1
295.000000 -272.000000 65029.000000 56 74 4
296.000000 -272.000000 65029.000000 58 79 8
297.000000 -272.000000 65029.000000 60 81 4
298.000000 -272.000000 65028.000000 62 90 1
299.000000 -272.000000 65028.000000 65 90 1
300.000000 -272.000000 65028.000000 69 95 1
301.000000 -272.000000 65027.000000 73 95 2
302.000000 -272.000000 65020.000000 73 96 3
303.000000 -272.000000 65022.000000 74 95 2
304.000000 -272.000000 65020.000000 77 95 1
305.000000 -272.000000 65020.000000 80 95 2
306.000000 -272.000000 65017.000000 82 96 3
307.000000 -272.000000 65015.000000 85 93 3
308.000000 -272.000000 65010.000000 80 77 4
309.000000 -272.000000 65009.000000 76 81 3
310.000000 -272.000000 65009.000000 86 92 3
311.000000 -272.000000 65009.000000 97 99 2
312.000000 -272.000000 65009.000000 68 50 2
313.000000 -272.000000 65008.000000 39 50 6
314.000000 -272.000000 65008.000000 57 51 10
315.000000 -272.000000 65008.000000 75 74 9
258.000000 -273.000000 65024.000000 44 54 2
259.000000 -273.000000 65026.000000 47 53 1
260.000000 -273.000000 65026.000000 43 50 1
261.000000 -273.000000 65026.000000 40 47 1
262.000000 -273.000000 65028.000000 40 44 1
263.000000 -273.000000 65029.000000 40 42 1
264.000000 -273.000000 65029.000000 39 41 1
265.000000 -273.000000 65029.000000 38 41 7
266.000000 -273.000000 65029.000000 44 45 14
267.000000 -273.000000 65029.000000 49 47 7
268.000000 -273.000000 65029.000000 48 48 1
269.000000 -273.000000 65029.000000 46 50 1
270.000000 -273.000000 65029.000000 51 49 1
271.000000 -273.000000 65029.000000 56 51 1
272.000000 -273.000000 65029.000000 52 51 1
273.000000 -273.000000 65029.000000 48 51 1
274.000000 -273.000000 65029.000000 42 50 1
275.000000 -273.000000 65029.000000 37 50 1
276.000000 -273.000000 65029.000000 26 48 1
277.000000 -273.000000 65029.000000 16 47 1
278.000000 -273.000000 65029.000000 21 49 1
279.000000 -273.000000 65029.000000 26 51 1
280.000000 -273.000000 65029.000000 41 52 1
281.000000 -273.000000 65029.000000 57 54 1
282.000000 -273.000000 65029.000000 54 54 1
283.000000 -273.000000 65030.000000 51 54 2
284.000000 -273.000000 65030.000000 53 55 3
285.000000 -273.000000 65031.000000 55 57 2
286.000000 -273.000000 65031.000000 51 54 1
287.000000 -273.000000 65031.000000 48 52 1
288.000000 -273.000000 65031.000000 53 55 1
289.000000 -273.000000 65032.000000 58 59 1
290.000000 -273.000000 65032.000000 54 58 1
291.000000 -273.000000 65032.000000 50 58 1
292.000000 -273.000000 65030.000000 53 57 1
293.000000 -273.000000 65030.000000 57 65 1
294.000000 -273.000000 65030.000000 58 70 2
295.000000 -273.000000 65029.000000 60 73 1
296.000000 -273.000000 65029.000000 58 75 1
297.000000 -273.000000 65029.000000 57 83 1
298.000000 -273.000000 65029.000000 61 87 1
299.000000 -273.000000 65028.000000 65 91 1
300.000000 -273.000000 65028.000000 71 94 1
301.000000 -273.000000 65027.000000 78 95 3
302.000000 -273.000000 65020.000000 77 95 5
303.000000 -273.000000 65020.000000 75 95 3
304.000000 -273.000000 65019.000000 78 96 1
305.000000 -273.000000 65019.000000 81 100 1
306.000000 -273.000000 65017.000000 86 97 1
307.000000 -273.000000 65015.000000 90 95 1
308.000000 -273.000000 65013.000000 85 86 1
309.000000 -273.000000 65010.000000 81 78 1
310.000000 -273.000000 65009.000000 90 94 2
311.000000 -273.000000 65009.000000 99 98 1
312.000000 -273.000000 65009.000000 64 49 1
313.000000 -273.000000 65009.000000 29 38 8
314.000000 -273.000000 65008.000000 50 54 15
315.000000 -273.000000 65008.000000 72 69 8
257.000000 -274.000000 65024.000000 44 54 2
258.000000 -274.000000 65024.000000 50 56 4
259.000000 -274.000000 65026.000000 56 55 2
260.000000 -274.000000 65026.000000 51 54 1
261.000000 -274.000000 65027.000000 47 54 1
262.000000 -274.000000 65029.000000 46 55 1
263.000000 -274.000000 65029.000000 46 52 1
264.000000 -274.000000 65029.000000 43 50 1
265.000000 -274.000000 65029.000000 41 40 4
266.000000 -274.000000 65030.000000 49 47 7
267.000000 -274.000000 65029.000000 58 46 4
268.000000 -274.000000 65029.000000 53 46 1
269.000000 -274.000000 65029.000000 49 47 1
270.000000 -274.000000 65029.000000 58 49 1
271.000000 -274.000000 65029.000000 68 47 1
272.000000 -274.000000 65029.000000 58 46 1
273.000000 -274.000000 65029.000000 48 47 5
274.000000 -274.000000 65029.000000 42 55 10
275.000000 -274.000000 65029.000000 36 48 5
276.000000 -274.000000 65029.000000 23 50 1
277.000000 -274.000000 65030.000000 11 51 1
278.000000 -274.000000 65029.000000 20 52 1
279.000000 -274.000000 65029.000000 30 53 7
280.000000 -274.000000 65029.000000 52 54 13
281.000000 -274.000000 65029.000000 74 55 7
282.000000 -274.000000 65030.000000 66 57 1
283.000000 -274.000000 65030.000000 59 56 5
284.000000 -274.000000 65031.000000 62 65 10
285.000000 -274.000000 65031.000000 66 55 5
286.000000 -274.000000 65031.000000 61 58 1
287.000000 -274.000000 65031.000000 57 59 1
288.000000 -274.000000 65032.000000 65 60 1
289.000000 -274.000000 65032.000000 73 58 3
290.000000 -274.000000 65032.000000 64 58 5
291.000000 -274.000000 65032.000000 56 59 3
292.000000 -274.000000 65031.000000 58 60 2
293.000000 -274.000000 65031.000000 60 65 5
294.000000 -274.000000 65031.000000 62 71 9
295.000000 -274.000000 65030.000000 64 71 5
296.000000 -274.000000 65029.000000 59 72 1
297.000000 -274.000000 65029.000000 55 83 1
298.000000 -274.000000 65029.000000 60 85 1
299.000000 -274.000000 65028.000000 65 90 1
300.000000 -274.000000 65028.000000 74 94 1
301.000000 -274.000000 65026.000000 84 95 2
302.000000 -274.000000 65024.000000 80 96 3
303.000000 -274.000000 65022.000000 77 95 2
304.000000 -274.000000 65020.000000 80 98 1
305.000000 -274.000000 65020.000000 83 98 3
306.000000 -274.000000 65017.000000 89 99 6
307.000000 -274.000000 65015.000000 96 95 4
308.000000 -274.000000 65013.000000 91 97 2
309.000000 -274.000000 65010.000000 86 97 11
310.000000 -274.000000 65009.000000 93 97 20
311.000000 -274.000000 65009.000000 101 104 10
312.000000 -274.000000 65009.000000 60 49 1
313.000000 -274.000000 65009.000000 19 41 5
314.000000 -274.000000 65008.000000 44 57 10
315.000000 -274.000000 65008.000000 70 66 8
257.000000 -275.000000 65024.000000 43 47 4
258.000000 -275.000000 65025.000000 43 48 7
259.000000 -275.000000 65026.000000 43 50 4
260.000000 -275.000000 65026.000000 43 50 1
261.000000 -275.000000 65026.000000 43 50 1
262.000000 -275.000000 65029.000000 41 52 1
263.000000 -275.000000 65029.000000 40 54 1
264.000000 -275.000000 65029.000000 33 47 1
265.000000 -275.000000 65030.000000 27 40 1
266.000000 -275.000000 65031.000000 36 37 1
267.000000 -275.000000 65030.000000 45 34 1
268.000000 -275.000000 65030.000000 42 37 1
269.000000 -275.000000 65029.000000 39 41 1
270.000000 -275.000000 65029.000000 45 39 1
271.000000 -275.000000 65029.000000 51 38 1
272.000000 -275.000000 65030.000000 44 41 1
273.000000 -275.000000 65030.000000 38 44 10
274.000000 -275.000000 65029.000000 34 45 20
275.000000 -275.000000 65029.000000 31 47 10
276.000000 -275.000000 65029.000000 23 48 1
277.000000 -275.000000 65030.000000 15 50 1
278.000000 -275.000000 65029.000000 23 52 1
279.000000 -275.000000 65029.000000 32 56 13
280.000000 -275.000000 65029.000000 47 54 25
281.000000 -275.000000 65030.000000 62 58 13
282.000000 -275.000000 65030.000000 57 58 1
283.000000 -275.000000 65030.000000 53 59 9
284.000000 -275.000000 65031.000000 56 56 17
285.000000 -275.000000 65031.000000 59 54 9
286.000000 -275.000000 65031.000000 55 55 1
287.000000 -275.000000 65031.000000 51 56 1
288.000000 -275.000000 65032.000000 55 57 1
289.000000 -275.000000 65032.000000 59 58 5
290.000000 -275.000000 65032.000000 55 55 9
291.000000 -275.000000 65032.000000 51 53 6
292.000000 -275.000000 65031.000000 55 55 3
293.000000 -275.000000 65031.000000 59 65 10
294.000000 -275.000000 65031.000000 64 76 17
295.000000 -275.000000 65030.000000 70 81 9
296.000000 -275.000000 65029.000000 59 82 1
297.000000 -275.000000 65029.000000 49 84 1
298.000000 -275.000000 65029.000000 56 86 1
299.000000 -275.000000 65028.000000 62 90 1
300.000000 -275.000000 65028.000000 71 94 1
301.000000 -275.000000 65026.000000 79 101 1
302.000000 -275.000000 65024.000000 77 96 1
303.000000 -275.000000 65023.000000 75 93 1
304.000000 -275.000000 65020.000000 79 94 1
305.000000 -275.000000 65020.000000 82 95 6
306.000000 -275.000000 65018.000000 86 95 11
307.000000 -275.000000 65015.000000 90 96 7
308.000000 -275.000000 65013.000000 86 94 4
309.000000 -275.000000 65010.000000 83 92 21
310.000000 -275.000000 65009.000000 94 99 38
311.000000 -275.000000 65009.000000 104 110 19
312.000000 -275.000000 65009.000000 73 70 1
313.000000 -275.000000 65009.000000 42 45 3
314.000000 -275.000000 65009.000000 58 54 6
315.000000 -275.000000 65009.000000 74 63 9
257.000000 -276.000000 65024.000000 43 45 2
258.000000 -276.000000 65025.000000 36 46 4
259.000000 -276.000000 65026.000000 30 50 2
260.000000 -276.000000 65026.000000 34 42 1
261.000000 -276.000000 65029.000000 39 43 1
262.000000 -276.000000 65029.000000 37 45 1
263.000000 -276.000000 65029.000000 35 49 1
264.000000 -276.000000 65030.000000 24 34 1
265.000000 -276.000000 65031.000000 13 34 1
266.000000 -276.000000 65031.000000 22 34 1
267.000000 -276.000000 65030.000000 32 32 1
268.000000 -276.000000 65031.000000 31 30 1
269.000000 -276.000000 65029.000000 30 28 1
270.000000 -276.000000 65029.000000 32 27 1
271.000000 -276.000000 65030.000000 34 30 1
272.000000 -276.000000 65030.000000 31 33 1
273.000000 -276.000000 65030.000000 28 36 6
274.000000 -276.000000 65030.000000 27 39 11
275.000000 -276.000000 65030.000000 27 42 6
276.000000 -276.000000 65030.000000 23 45 1
277.000000 -276.000000 65030.000000 19 48 1
278.000000 -276.000000 65030.000000 26 53 1
279.000000 -276.000000 65030.000000 34 54 7
280.000000 -276.000000 65030.000000 42 55 13
281.000000 -276.000000 65030.000000 51 53 7
282.000000 -276.000000 65030.000000 49 51 1
283.000000 -276.000000 65031.000000 47 50 5
284.000000 -276.000000 65031.000000 50 49 9
285.000000 -276.000000 65032.000000 53 48 5
286.000000 -276.000000 65031.000000 49 48 1
287.000000 -276.000000 65032.000000 46 49 1
288.000000 -276.000000 65032.000000 46 51 1
289.000000 -276.000000 65032.000000 46 50 3
290.000000 -276.000000 65032.000000 46 50 5
291.000000 -276.000000 65032.000000 47 50 5
292.000000 -276.000000 65031.000000 52 50 5
293.000000 -276.000000 65032.000000 58 67 7
294.000000 -276.000000 65032.000000 67 82 9
295.000000 -276.000000 65030.000000 76 80 5
296.000000 -276.000000 65030.000000 60 78 1
297.000000 -276.000000 65029.000000 44 82 1
298.000000 -276.000000 65029.000000 52 88 1
299.000000 -276.000000 65028.000000 60 90 1
300.000000 -276.000000 65028.000000 67 95 1
301.000000 -276.000000 65024.000000 75 96 1
302.000000 -276.000000 65024.000000 74 97 1
303.000000 -276.000000 65023.000000 74 93 1
304.000000 -276.000000 65021.000000 78 93 1
305.000000 -276.000000 65020.000000 82 94 4
306.000000 -276.000000 65018.000000 83 97 7
307.000000 -276.000000 65016.000000 84 92 5
308.000000 -276.000000 65010.000000 82 78 4
309.000000 -276.000000 65010.000000 81 87 12
310.000000 -276.000000 65009.000000 94 102 19
311.000000 -276.000000 65009.000000 108 96 10
312.000000 -276.000000 65009.000000 86 91 1
313.000000 -276.000000 65009.000000 65 83 2
314.000000 -276.000000 65009.000000 71 76 3
315.000000 -276.000000 65009.000000 78 77 16
257.000000 -277.000000 65024.000000 52 44 1
258.000000 -277.000000 65025.000000 46 47 1
259.000000 -277.000000 65026.000000 41 50 1
260.000000 -277.000000 65026.000000 42 47 1
261.000000 -277.000000 65029.000000 43 45 1
262.000000 -277.000000 65029.000000 44 45 1
263.000000 -277.000000 65030.000000 45 44 1
264.000000 -277.000000 65030.000000 35 37 1
265.000000 -277.000000 65031.000000 26 32 1
266.000000 -277.000000 65031.000000 28 28 1
267.000000 -277.000000 65031.000000 31 25 1
268.000000 -277.000000 65031.000000 29 24 1
269.000000 -277.000000 65031.000000 27 24 1
270.000000 -277.000000 65030.000000 30 25 1
271.000000 -277.000000 65030.000000 33 26 1
272.000000 -277.000000 65030.000000 27 30 1
273.000000 -277.000000 65030.000000 21 34 1
274.000000 -277.000000 65030.000000 23 38 2
275.000000 -277.000000 65030.000000 24 29 1
276.000000 -277.000000 65030.000000 20 42 1
277.000000 -277.000000 65030.000000 15 47 1
278.000000 -277.000000 65030.000000 24 46 1
279.000000 -277.000000 65030.000000 34 45 1
280.000000 -277.000000 65030.000000 44 45 1
281.000000 -277.000000 65030.000000 54 45 1
282.000000 -277.000000 65030.000000 51 46 1
283.000000 -277.000000 65030.000000 48 42 1
284.000000 -277.000000 65031.000000 51 47 1
285.000000 -277.000000 65032.000000 55 51 1
286.000000 -277.000000 65031.000000 51 51 1
287.000000 -277.000000 65032.000000 47 52 1
288.000000 -277.000000 65032.000000 47 51 1
289.000000 -277.000000 65032.000000 46 46 1
290.000000 -277.000000 65032.000000 48 49 1
291.000000 -277.000000 65032.000000 49 50 4
292.000000 -277.000000 65032.000000 53 53 8
293.000000 -277.000000 65032.000000 58 69 4
294.000000 -277.000000 65032.000000 63 70 1
295.000000 -277.000000 65031.000000 69 71 1
296.000000 -277.000000 65030.000000 59 77 1
297.000000 -277.000000 65030.000000 50 80 1
298.000000 -277.000000 65029.000000 56 86 1
299.000000 -277.000000 65028.000000 62 91 1
300.000000 -277.000000 65027.000000 67 94 1
301.000000 -277.000000 65027.000000 73 98 1
302.000000 -277.000000 65023.000000 74 97 1
303.000000 -277.000000 65023.000000 75 93 1
304.000000 -277.000000 65021.000000 77 93 1
305.000000 -277.000000 65019.000000 80 93 2
306.000000 -277.000000 65018.000000 80 93 3
307.000000 -277.000000 65017.000000 80 89 4
308.000000 -277.000000 65016.000000 71 86 5
309.000000 -277.000000 65013.000000 62 83 3
310.000000 -277.000000 65013.000000 82 97 1
311.000000 -277.000000 65009.000000 103 95 1
312.000000 -277.000000 65009.000000 89 93 1
313.000000 -277.000000 65009.000000 75 89 1
314.000000 -277.000000 65009.000000 78 83 1
315.000000 -277.000000 65009.000000 80 78 23
258.000000 -278.000000 65025.000000 57 54 1
259.000000 -278.000000 65026.000000 52 53 1
260.000000 -278.000000 65029.000000 49 53 1
261.000000 -278.000000 65029.000000 47 45 1
262.000000 -278.000000 65029.000000 51 46 1
263.000000 -278.000000 65029.000000 55 45 2
264.000000 -278.000000 65030.000000 47 41 4
265.000000 -278.000000 65031.000000 39 33 2
266.000000 -278.000000 65031.000000 34 24 1
267.000000 -278.000000 65031.000000 30 27 1
268.000000 -278.000000 65031.000000 27 17 1
269.000000 -278.000000 65031.000000 25 19 1
270.000000 -278.000000 65031.000000 29 22 1
271.000000 -278.000000 65031.000000 33 27 1
272.000000 -278.000000 65031.000000 24 27 1
273.000000 -278.000000 65031.000000 15 30 1
274.000000 -278.000000 65032.000000 18 37 1
275.000000 -278.000000 65032.000000 22 38 1
276.000000 -278.000000 65032.000000 17 40 1
277.000000 -278.000000 65031.000000 12 48 1
278.000000 -278.000000 65031.000000 23 46 1
279.000000 -278.000000 65030.000000 34 46 10
280.000000 -278.000000 65030.000000 46 46 19
281.000000 -278.000000 65030.000000 58 44 11
282.000000 -278.000000 65031.000000 53 48 3
283.000000 -278.000000 65031.000000 49 43 16
284.000000 -278.000000 65031.000000 53 45 30
285.000000 -278.000000 65031.000000 58 48 15
286.000000 -278.000000 65031.000000 53 53 1
287.000000 -278.000000 65032.000000 49 52 1
288.000000 -278.000000 65032.000000 48 51 1
289.000000 -278.000000 65032.000000 47 50 2
290.000000 -278.000000 65032.000000 49 49 4
291.000000 -278.000000 65032.000000 52 48 5
292.000000 -278.000000 65032.000000 55 57 7
293.000000 -278.000000 65032.000000 58 67 10
294.000000 -278.000000 65031.000000 60 73 13
295.000000 -278.000000 65031.000000 63 74 7
296.000000 -278.000000 65030.000000 59 76 1
297.000000 -278.000000 65029.000000 56 80 1
298.000000 -278.000000 65029.000000 60 85 1
299.000000 -278.000000 65028.000000 64 90 1
300.000000 -278.000000 65026.000000 67 93 1
301.000000 -278.000000 65025.000000 71 97 1
302.000000 -278.000000 65024.000000 73 97 1
303.000000 -278.000000 65023.000000 76 93 1
304.000000 -278.000000 65023.000000 77 92 1
305.000000 -278.000000 65020.000000 79 92 16
306.000000 -278.000000 65018.000000 78 93 31
307.000000 -278.000000 65017.000000 77 86 17
308.000000 -278.000000 65016.000000 60 49 3
309.000000 -278.000000 65014.000000 44 68 2
310.000000 -278.000000 65009.000000 71 93 1
311.000000 -278.000000 65009.000000 98 94 1
312.000000 -278.000000 65009.000000 92 95 1
313.000000 -278.000000 65009.000000 86 89 1
314.000000 -278.000000 65009.000000 84 88 1
259.000000 -279.000000 65026.000000 49 54 1
260.000000 -279.000000 65028.000000 47 51 1
261.000000 -279.000000 65028.000000 46 46 1
262.000000 -279.000000 65029.000000 48 46 1
263.000000 -279.000000 65029.000000 50 47 4
264.000000 -279.000000 65030.000000 45 43 8
265.000000 -279.000000 65031.000000 41 34 4
266.000000 -279.000000 65031.000000 39 32 1
267.000000 -279.000000 65031.000000 36 30 1
268.000000 -279.000000 65032.000000 34 31 1
269.000000 -279.000000 65031.000000 33 32 1
270.000000 -279.000000 65031.000000 34 30 1
271.000000 -279.000000 65032.000000 35 29 1
272.000000 -279.000000 65032.000000 28 28 1
273.000000 -279.000000 65032.000000 21 27 1
274.000000 -279.000000 65032.000000 22 34 1
275.000000 -279.000000 65032.000000 22 41 1
276.000000 -279.000000 65031.000000 18 39 1
277.000000 -279.000000 65031.000000 15 49 1
278.000000 -279.000000 65030.000000 23 48 1
279.000000 -279.000000 65030.000000 32 51 19
280.000000 -279.000000 65030.000000 41 46 37
281.000000 -279.000000 65031.000000 50 44 21
282.000000 -279.000000 65031.000000 45 41 5
283.000000 -279.000000 65031.000000 41 39 32
284.000000 -279.000000 65031.000000 44 42 59
285.000000 -279.000000 65031.000000 47 46 30
286.000000 -279.000000 65032.000000 44 43 1
287.000000 -279.000000 65032.000000 41 41 1
288.000000 -279.000000 65032.000000 42 41 1
289.000000 -279.000000 65032.000000 43 41 4
290.000000 -279.000000 65032.000000 45 43 7
291.000000 -279.000000 65032.000000 47 46 6
292.000000 -279.000000 65031.000000 50 55 6
293.000000 -279.000000 65031.000000 54 65 16
294.000000 -279.000000 65031.000000 56 69 26
295.000000 -279.000000 65031.000000 59 76 13
296.000000 -279.000000 65030.000000 57 77 1
297.000000 -279.000000 65029.000000 55 80 1
298.000000 -279.000000 65029.000000 59 84 1
299.000000 -279.000000 65028.000000 63 90 1
300.000000 -279.000000 65024.000000 67 93 1
301.000000 -279.000000 65023.000000 71 97 1
302.000000 -279.000000 65023.000000 75 97 1
303.000000 -279.000000 65023.000000 79 93 1
304.000000 -279.000000 65022.000000 78 93 1
305.000000 -279.000000 65019.000000 77 101 30
306.000000 -279.000000 65019.000000 77 93 60
307.000000 -279.000000 65017.000000 76 84 30
308.000000 -279.000000 65017.000000 65 53 1
309.000000 -279.000000 65014.000000 53 53 1
310.000000 -279.000000 65010.000000 72 86 1
311.000000 -279.000000 65009.000000 92 100 1
312.000000 -279.000000 65009.000000 88 95 1
313.000000 -279.000000 65009.000000 85 90 1
314.000000 -279.000000 65009.000000 84 85 1
259.000000 -280.000000 65026.000000 46 55 1
260.000000 -280.000000 65028.000000 45 49 1
261.000000 -280.000000 65028.000000 45 49 1
262.000000 -280.000000 65029.000000 45 49 1
263.000000 -280.000000 65029.000000 45 48 2
264.000000 -280.000000 65030.000000 44 45 4
265.000000 -280.000000 65031.000000 44 42 2
266.000000 -280.000000 65031.000000 43 39 1
267.000000 -280.000000 65031.000000 43 36 1
268.000000 -280.000000 65032.000000 42 34 1
269.000000 -280.000000 65032.000000 41 36 1
270.000000 -280.000000 65032.000000 39 39 1
271.000000 -280.000000 65032.000000 37 34 1
272.000000 -280.000000 65032.000000 32 30 1
273.000000 -280.000000 65032.000000 28 30 5
274.000000 -280.000000 65032.000000 25 31 10
275.000000 -280.000000 65031.000000 23 41 5
276.000000 -280.000000 65031.000000 20 39 1
277.000000 -280.000000 65030.000000 18 45 1
278.000000 -280.000000 65030.000000 24 48 1
279.000000 -280.000000 65030.000000 31 47 10
280.000000 -280.000000 65030.000000 36 47 19
281.000000 -280.000000 65031.000000 42 41 11
282.000000 -280.000000 65031.000000 38 36 3
283.000000 -280.000000 65032.000000 34 35 17
284.000000 -280.000000 65032.000000 35 34 31
285.000000 -280.000000 65032.000000 37 32 16
286.000000 -280.000000 65032.000000 35 30 1
287.000000 -280.000000 65032.000000 33 32 1
288.000000 -280.000000 65032.000000 36 34 1
289.000000 -280.000000 65032.000000 39 36 2
290.000000 -280.000000 65032.000000 40 39 4
291.000000 -280.000000 65032.000000 42 45 5
292.000000 -280.000000 65031.000000 46 53 7
293.000000 -280.000000 65031.000000 50 60 13
294.000000 -280.000000 65031.000000 52 66 19
295.000000 -280.000000 65031.000000 55 76 10
296.000000 -280.000000 65030.000000 55 79 1
297.000000 -280.000000 65029.000000 55 80 1
298.000000 -280.000000 65029.000000 58 83 1
299.000000 -280.000000 65028.000000 62 89 1
300.000000 -280.000000 65025.000000 67 94 1
301.000000 -280.000000 65023.000000 72 97 1
302.000000 -280.000000 65024.000000 77 97 1
303.000000 -280.000000 65024.000000 82 96 1
304.000000 -280.000000 65020.000000 79 95 1
305.000000 -280.000000 65020.000000 76 94 16
306.000000 -280.000000 65019.000000 76 93 32
307.000000 -280.000000 65017.000000 76 87 17
308.000000 -280.000000 65017.000000 69 58 3
309.000000 -280.000000 65013.000000 63 60 9
310.000000 -280.000000 65010.000000 74 80 16
311.000000 -280.000000 65009.000000 86 95 9
312.000000 -280.000000 65009.000000 85 96 2
313.000000 -280.000000 65009.000000 84 91 1
314.000000 -280.000000 65009.000000 84 82 1
258.000000 -281.000000 65024.000000 45 53 1
259.000000 -281.000000 65026.000000 45 57 1
260.000000 -281.000000 65028.000000 48 55 1
261.000000 -281.000000 65028.000000 51 53 1
262.000000 -281.000000 65029.000000 48 49 1
263.000000 -281.000000 65029.000000 45 50 1
264.000000 -281.000000 65030.000000 44 45 1
265.000000 -281.000000 65030.000000 44 47 1
266.000000 -281.000000 65030.000000 44 47 1
267.000000 -281.000000 65031.000000 44 47 1
268.000000 -281.000000 65032.000000 44 46 1
269.000000 -281.000000 65031.000000 43 45 1
270.000000 -281.000000 65031.000000 40 43 2
271.000000 -281.000000 65031.000000 37 42 1
272.000000 -281.000000 65031.000000 33 36 1
273.000000 -281.000000 65032.000000 29 31 10
274.000000 -281.000000 65031.000000 26 35 19
275.000000 -281.000000 65031.000000 23 41 10
276.000000 -281.000000 65031.000000 19 41 1
277.000000 -281.000000 65030.000000 15 42 1
278.000000 -281.000000 65031.000000 22 43 1
279.000000 -281.000000 65031.000000 30 44 1
280.000000 -281.000000 65031.000000 35 41 2
281.000000 -281.000000 65032.000000 40 39 1
282.000000 -281.000000 65032.000000 37 33 1
283.000000 -281.000000 65032.000000 33 30 2
284.000000 -281.000000 65032.000000 34 30 3
285.000000 -281.000000 65032.000000 34 31 2
286.000000 -281.000000 65032.000000 33 30 2
287.000000 -281.000000 65032.000000 32 31 1
288.000000 -281.000000 65032.000000 35 34 1
289.000000 -281.000000 65032.000000 38 34 1
290.000000 -281.000000 65032.000000 39 44 1
291.000000 -281.000000 65032.000000 41 45 4
292.000000 -281.000000 65031.000000 45 52 8
293.000000 -281.000000 65031.000000 49 55 10
294.000000 -281.000000 65031.000000 52 64 12
295.000000 -281.000000 65031.000000 55 76 6
296.000000 -281.000000 65030.000000 53 77 1
297.000000 -281.000000 65029.000000 51 81 1
298.000000 -281.000000 65029.000000 56 82 1
299.000000 -281.000000 65029.000000 62 89 1
300.000000 -281.000000 65032.000000 66 94 2
301.000000 -281.000000 65024.000000 70 98 1
302.000000 -281.000000 65024.000000 70 97 1
303.000000 -281.000000 65024.000000 70 96 1
304.000000 -281.000000 65024.000000 73 96 1
305.000000 -281.000000 65019.000000 76 96 2
306.000000 -281.000000 65019.000000 78 94 4
307.000000 -281.000000 65017.000000 79 91 4
308.000000 -281.000000 65016.000000 75 67 5
309.000000 -281.000000 65013.000000 71 68 18
310.000000 -281.000000 65011.000000 79 88 32
311.000000 -281.000000 65009.000000 87 91 17
312.000000 -281.000000 65009.000000 85 92 3
313.000000 -281.000000 65009.000000 83 93 2
314.000000 -281.000000 65009.000000 83 86 1
315.000000 -281.000000 65009.000000 83 77 2
257.000000 -282.000000 65023.000000 41 53 1
258.000000 -282.000000 65024.000000 43 53 1
259.000000 -282.000000 65026.000000 45 53 1
260.000000 -282.000000 65027.000000 51 54 1
261.000000 -282.000000 65028.000000 57 51 1
262.000000 -282.000000 65029.000000 51 49 1
263.000000 -282.000000 65029.000000 45 47 1
264.000000 -282.000000 65030.000000 45 46 1
265.000000 -282.000000 65030.000000 45 46 1
266.000000 -282.000000 65030.000000 45 47 1
267.000000 -282.000000 65031.000000 46 46 1
268.000000 -282.000000 65031.000000 46 51 1
269.000000 -282.000000 65031.000000 46 49 1
270.000000 -282.000000 65031.000000 41 48 1
271.000000 -282.000000 65031.000000 37 43 1
272.000000 -282.000000 65031.000000 33 41 1
273.000000 -282.000000 65031.000000 30 40 5
274.000000 -282.000000 65031.000000 27 40 10
275.000000 -282.000000 65031.000000 24 40 5
276.000000 -282.000000 65031.000000 18 41 1
277.000000 -282.000000 65031.000000 12 39 1
278.000000 -282.000000 65031.000000 21 38 1
279.000000 -282.000000 65031.000000 30 35 4
280.000000 -282.000000 65031.000000 34 33 7
281.000000 -282.000000 65032.000000 39 39 4
282.000000 -282.000000 65032.000000 36 31 1
283.000000 -282.000000 65032.000000 33 31 1
284.000000 -282.000000 65032.000000 32 32 2
285.000000 -282.000000 65032.000000 32 31 2
286.000000 -282.000000 65032.000000 31 30 2
287.000000 -282.000000 65032.000000 31 34 5
288.000000 -282.000000 65032.000000 34 37 9
289.000000 -282.000000 65032.000000 37 38 5
290.000000 -282.000000 65032.000000 38 49 1
291.000000 -282.000000 65032.000000 40 50 4
292.000000 -282.000000 65031.000000 44 51 8
293.000000 -282.000000 65031.000000 49 54 21
294.000000 -282.000000 65031.000000 52 62 35
295.000000 -282.000000 65031.000000 56 72 18
296.000000 -282.000000 65031.000000 51 75 1
297.000000 -282.000000 65030.000000 47 79 1
298.000000 -282.000000 65029.000000 54 81 1
299.000000 -282.000000 65032.000000 62 88 11
300.000000 -282.000000 65032.000000 65 95 22
301.000000 -282.000000 65032.000000 69 96 13
302.000000 -282.000000 65020.000000 64 98 4
303.000000 -282.000000 65019.000000 59 98 2
304.000000 -282.000000 65019.000000 68 98 1
305.000000 -282.000000 65019.000000 77 95 17
306.000000 -282.000000 65017.000000 80 95 33
307.000000 -282.000000 65017.000000 83 95 28
308.000000 -282.000000 65017.000000 81 76 24
309.000000 -282.000000 65013.000000 80 71 34
310.000000 -282.000000 65012.000000 84 96 43
311.000000 -282.000000 65009.000000 89 94 22
312.000000 -282.000000 65009.000000 85 93 2
313.000000 -282.000000 65009.000000 82 93 2
314.000000 -282.000000 65009.000000 82 90 2
315.000000 -282.000000 65009.000000 82 76 3
257.000000 -283.000000 65023.000000 40 50 1
258.000000 -283.000000 65024.000000 43 52 1
259.000000 -283.000000 65026.000000 46 46 1
260.000000 -283.000000 65028.000000 49 50 1
261.000000 -283.000000 65028.000000 52 50 1
262.000000 -283.000000 65029.000000 45 49 1
263.000000 -283.000000 65029.000000 39 45 1
264.000000 -283.000000 65030.000000 42 46 1
265.000000 -283.000000 65030.000000 44 46 1
266.000000 -283.000000 65031.000000 45 45 1
267.000000 -283.000000 65031.000000 46 45 1
268.000000 -283.000000 65031.000000 45 48 1
269.000000 -283.000000 65031.000000 45 53 1
270.000000 -283.000000 65031.000000 40 49 1
271.000000 -283.000000 65031.000000 36 44 1
272.000000 -283.000000 65031.000000 34 42 1
273.000000 -283.000000 65031.000000 31 41 1
274.000000 -283.000000 65031.000000 28 38 1
275.000000 -283.000000 65031.000000 26 34 1
276.000000 -283.000000 65031.000000 22 34 1
277.000000 -283.000000 65031.000000 18 35 1
278.000000 -283.000000 65031.000000 24 36 1
279.000000 -283.000000 65031.000000 29 34 6
280.000000 -283.000000 65032.000000 33 36 12
281.000000 -283.000000 65032.000000 36 39 6
282.000000 -283.000000 65032.000000 33 30 1
283.000000 -283.000000 65032.000000 30 33 1
284.000000 -283.000000 65032.000000 32 32 1
285.000000 -283.000000 65032.000000 34 32 1
286.000000 -283.000000 65032.000000 30 30 2
287.000000 -283.000000 65032.000000 26 37 10
288.000000 -283.000000 65032.000000 29 38 18
289.000000 -283.000000 65032.000000 32 43 9
290.000000 -283.000000 65032.000000 34 46 1
291.000000 -283.000000 65032.000000 37 49 4
292.000000 -283.000000 65031.000000 43 51 8
293.000000 -283.000000 65031.000000 49 54 33
294.000000 -283.000000 65031.000000 55 60 58
295.000000 -283.000000 65031.000000 61 69 29
296.000000 -283.000000 65031.000000 55 74 1
297.000000 -283.000000 65031.000000 49 77 1
298.000000 -283.000000 65030.000000 55 81 1
299.000000 -283.000000 65032.000000 62 87 21
300.000000 -283.000000 65032.000000 65 92 42
301.000000 -283.000000 65032.000000 69 94 24
302.000000 -283.000000 65020.000000 67 96 7
303.000000 -283.000000 65020.000000 65 97 4
304.000000 -283.000000 65020.000000 71 95 1
305.000000 -283.000000 65019.000000 78 94 31
306.000000 -283.000000 65018.000000 82 96 62
307.000000 -283.000000 65017.000000 86 99 53
308.000000 -283.000000 65017.000000 84 88 44
309.000000 -283.000000 65014.000000 83 74 49
310.000000 -283.000000 65013.000000 91 98 55
311.000000 -283.000000 65009.000000 99 102 28
312.000000 -283.000000 65009.000000 91 95 1
313.000000 -283.000000 65009.000000 84 93 2
314.000000 -283.000000 65009.000000 83 86 4
315.000000 -283.000000 65009.000000 82 76 4
316.000000 -283.000000 65009.000000 84 77 4
257.000000 -284.000000 65023.000000 39 50 1
258.000000 -284.000000 65024.000000 43 52 1
259.000000 -284.000000 65026.000000 47 51 1
260.000000 -284.000000 65028.000000 47 50 1
261.000000 -284.000000 65029.000000 47 50 1
262.000000 -284.000000 65029.000000 40 50 1
263.000000 -284.000000 65029.000000 34 48 1
264.000000 -284.000000 65030.000000 39 47 1
265.000000 -284.000000 65030.000000 44 46 1
266.000000 -284.000000 65031.000000 45 45 1
267.000000 -284.000000 65031.000000 47 45 1
268.000000 -284.000000 65032.000000 45 45 1
269.000000 -284.000000 65031.000000 44 47 1
270.000000 -284.000000 65031.000000 40 50 1
271.000000 -284.000000 65031.000000 36 45 1
272.000000 -284.000000 65031.000000 34 46 1
273.000000 -284.000000 65031.000000 33 37 1
274.000000 -284.000000 65029.000000 30 37 1
275.000000 -284.000000 65030.000000 28 38 1
276.000000 -284.000000 65032.000000 26 39 1
277.000000 -284.000000 65032.000000 25 38 1
278.000000 -284.000000 65031.000000 27 37 1
279.000000 -284.000000 65031.000000 29 36 3
280.000000 -284.000000 65032.000000 31 43 6
281.000000 -284.000000 65032.000000 34 36 3
282.000000 -284.000000 65032.000000 31 30 1
283.000000 -284.000000 65032.000000 28 30 1
284.000000 -284.000000 65032.000000 32 30 1
285.000000 -284.000000 65032.000000 37 30 1
286.000000 -284.000000 65032.000000 29 30 1
287.000000 -284.000000 65032.000000 21 34 5
288.000000 -284.000000 65032.000000 24 39 9
289.000000 -284.000000 65032.000000 28 36 5
290.000000 -284.000000 65032.000000 31 34 1
291.000000 -284.000000 65032.000000 34 41 3
292.000000 -284.000000 65031.000000 41 45 6
293.000000 -284.000000 65031.000000 49 54 18
294.000000 -284.000000 65031.000000 57 58 30
295.000000 -284.000000 65031.000000 66 71 15
296.000000 -284.000000 65031.000000 58 74 1
297.000000 -284.000000 65031.000000 51 78 1
298.000000 -284.000000 65031.000000 56 81 1
299.000000 -284.000000 65030.000000 62 85 13
300.000000 -284.000000 65030.000000 66 89 25
301.000000 -284.000000 65030.000000 70 94 14
303.000000 -284.000000 65020.000000 72 94 2
304.000000 -284.000000 65020.000000 75 94 1
305.000000 -284.000000 65019.000000 79 93 16
306.000000 -284.000000 65017.000000 84 112 32
307.000000 -284.000000 65017.000000 89 103 27
308.000000 -284.000000 65017.000000 88 100 23
309.000000 -284.000000 65016.000000 87 100 26
310.000000 -284.000000 65013.000000 98 100 29
311.000000 -284.000000 65009.000000 109 99 15
312.000000 -284.000000 65009.000000 98 98 1
313.000000 -284.000000 65009.000000 87 96 6
314.000000 -284.000000 65009.000000 85 83 11
315.000000 -284.000000 65009.000000 83 77 9
316.000000 -284.000000 65009.000000 85 78 8
257.000000 -285.000000 65023.000000 39 48 1
258.000000 -285.000000 65025.000000 41 48 1
259.000000 -285.000000 65026.000000 43 49 1
260.000000 -285.000000 65028.000000 44 49 1
261.000000 -285.000000 65029.000000 45 50 1
262.000000 -285.000000 65029.000000 45 50 1
263.000000 -285.000000 65029.000000 44 51 1
264.000000 -285.000000 65030.000000 43 49 1
265.000000 -285.000000 65030.000000 42 47 1
266.000000 -285.000000 65031.000000 43 46 1
267.000000 -285.000000 65031.000000 45 46 1
268.000000 -285.000000 65032.000000 44 46 1
269.000000 -285.000000 65032.000000 43 47 1
270.000000 -285.000000 65032.000000 44 48 1
271.000000 -285.000000 65031.000000 44 47 1
272.000000 -285.000000 65031.000000 39 44 1
273.000000 -285.000000 65031.000000 33 34 1
274.000000 -285.000000 65030.000000 30 38 1
275.000000 -285.000000 65030.000000 27 37 1
276.000000 -285.000000 65031.000000 24 38 1
277.000000 -285.000000 65031.000000 21 41 1
278.000000 -285.000000 65032.000000 27 40 1
279.000000 -285.000000 65032.000000 34 39 1
280.000000 -285.000000 65032.000000 33 37 1
281.000000 -285.000000 65032.000000 32 24 1
282.000000 -285.000000 65032.000000 30 30 1
283.000000 -285.000000 65032.000000 29 22 1
284.000000 -285.000000 65032.000000 31 30 1
285.000000 -285.000000 65032.000000 33 21 1
286.000000 -285.000000 65032.000000 28 25 1
287.000000 -285.000000 65032.000000 23 21 1
288.000000 -285.000000 65032.000000 26 26 1
289.000000 -285.000000 65032.000000 29 32 1
290.000000 -285.000000 65032.000000 31 33 1
291.000000 -285.000000 65032.000000 34 38 2
292.000000 -285.000000 65031.000000 42 45 4
293.000000 -285.000000 65031.000000 51 54 3
294.000000 -285.000000 65031.000000 56 65 2
295.000000 -285.000000 65031.000000 61 73 1
296.000000 -285.000000 65031.000000 53 76 1
297.000000 -285.000000 65031.000000 45 79 1
298.000000 -285.000000 65031.000000 52 81 1
299.000000 -285.000000 65030.000000 60 84 4
300.000000 -285.000000 65030.000000 64 89 8
301.000000 -285.000000 65030.000000 69 95 4
302.000000 -285.000000 65021.000000 70 95 1
303.000000 -285.000000 65021.000000 72 95 1
304.000000 -285.000000 65021.000000 75 94 1
305.000000 -285.000000 65020.000000 79 92 1
306.000000 -285.000000 65020.000000 86 105 2
307.000000 -285.000000 65017.000000 94 108 2
308.000000 -285.000000 65017.000000 91 104 3
309.000000 -285.000000 65017.000000 88 100 3
310.000000 -285.000000 65013.000000 95 100 3
311.000000 -285.000000 65009.000000 102 98 2
312.000000 -285.000000 65009.000000 94 99 1
313.000000 -285.000000 65009.000000 86 100 9
314.000000 -285.000000 65009.000000 83 85 18
315.000000 -285.000000 65009.000000 81 79 15
316.000000 -285.000000 65009.000000 82 77 13
258.000000 -286.000000 65025.000000 39 45 1
259.000000 -286.000000 65027.000000 39 48 7
260.000000 -286.000000 65028.000000 41 49 14
261.000000 -286.000000 65029.000000 44 48 8
262.000000 -286.000000 65029.000000 49 47 1
263.000000 -286.000000 65029.000000 55 51 3
264.000000 -286.000000 65030.000000 48 51 5
265.000000 -286.000000 65030.000000 41 47 3
266.000000 -286.000000 65031.000000 42 49 1
267.000000 -286.000000 65031.000000 43 45 1
268.000000 -286.000000 65032.000000 43 46 1
269.000000 -286.000000 65031.000000 43 48 1
270.000000 -286.000000 65031.000000 48 50 1
271.000000 -286.000000 65031.000000 53 46 1
272.000000 -286.000000 65031.000000 43 42 1
273.000000 -286.000000 65031.000000 34 40 3
274.000000 -286.000000 65031.000000 30 39 5
275.000000 -286.000000 65031.000000 26 38 3
276.000000 -286.000000 65032.000000 22 38 1
277.000000 -286.000000 65032.000000 18 39 1
278.000000 -286.000000 65032.000000 28 41 1
279.000000 -286.000000 65032.000000 39 42 1
280.000000 -286.000000 65032.000000 34 32 1
281.000000 -286.000000 65032.000000 30 31 1
282.000000 -286.000000 65032.000000 30 31 1
283.000000 -286.000000 65032.000000 30 30 1
284.000000 -286.000000 65032.000000 30 30 1
285.000000 -286.000000 65032.000000 30 30 1
286.000000 -286.000000 65032.000000 27 30 1
287.000000 -286.000000 65032.000000 25 26 2
288.000000 -286.000000 65032.000000 27 23 3
289.000000 -286.000000 65032.000000 30 35 2
290.000000 -286.000000 65032.000000 32 33 1
291.000000 -286.000000 65032.000000 34 41 1
292.000000 -286.000000 65031.000000 43 45 2
293.000000 -286.000000 65031.000000 53 57 2
294.000000 -286.000000 65031.000000 54 72 1
295.000000 -286.000000 65031.000000 56 74 1
296.000000 -286.000000 65032.000000 47 79 1
297.000000 -286.000000 65032.000000 39 80 1
298.000000 -286.000000 65031.000000 48 81 1
299.000000 -286.000000 65031.000000 58 86 2
300.000000 -286.000000 65030.000000 63 90 4
302.000000 -286.000000 65021.000000 70 95 1
303.000000 -286.000000 65021.000000 72 95 1
304.000000 -286.000000 65021.000000 75 95 2
305.000000 -286.000000 65020.000000 79 95 6
306.000000 -286.000000 65019.000000 89 98 10
307.000000 -286.000000 65017.000000 99 102 18
308.000000 -286.000000 65017.000000 94 82 27
309.000000 -286.000000 65017.000000 89 91 23
310.000000 -286.000000 65013.000000 92 100 20
311.000000 -286.000000 65010.000000 95 100 14
312.000000 -286.000000 65009.000000 90 100 9
313.000000 -286.000000 65009.000000 85 95 14
314.000000 -286.000000 65009.000000 82 88 19
315.000000 -286.000000 65009.000000 79 80 13
316.000000 -286.000000 65009.000000 80 77 8
259.000000 -287.000000 65028.000000 32 48 14
260.000000 -287.000000 65029.000000 34 48 28
261.000000 -287.000000 65029.000000 37 48 15
262.000000 -287.000000 65029.000000 40 49 2
263.000000 -287.000000 65030.000000 43 51 5
264.000000 -287.000000 65032.000000 39 49 9
265.000000 -287.000000 65030.000000 36 47 5
266.000000 -287.000000 65031.000000 38 45 1
267.000000 -287.000000 65031.000000 40 44 1
268.000000 -287.000000 65031.000000 40 47 1
269.000000 -287.000000 65031.000000 41 55 1
270.000000 -287.000000 65031.000000 44 52 1
271.000000 -287.000000 65031.000000 46 46 1
272.000000 -287.000000 65031.000000 37 42 1
273.000000 -287.000000 65031.000000 29 41 5
274.000000 -287.000000 65031.000000 27 40 9
275.000000 -287.000000 65031.000000 25 38 5
276.000000 -287.000000 65032.000000 22 38 1
277.000000 -287.000000 65032.000000 19 46 1
278.000000 -287.000000 65032.000000 27 46 1
279.000000 -287.000000 65032.000000 35 46 1
280.000000 -287.000000 65032.000000 33 41 2
281.000000 -287.000000 65032.000000 31 37 1
282.000000 -287.000000 65032.000000 30 37 1
283.000000 -287.000000 65032.000000 29 37 1
284.000000 -287.000000 65032.000000 31 35 2
285.000000 -287.000000 65032.000000 33 34 1
286.000000 -287.000000 65032.000000 31 30 1
287.000000 -287.000000 65032.000000 28 32 3
288.000000 -287.000000 65032.000000 30 35 5
289.000000 -287.000000 65032.000000 31 38 3
290.000000 -287.000000 65032.000000 34 41 1
291.000000 -287.000000 65032.000000 36 44 1
292.000000 -287.000000 65031.000000 44 47 1
293.000000 -287.000000 65031.000000 51 60 1
294.000000 -287.000000 65031.000000 54 68 1
295.000000 -287.000000 65032.000000 57 76 1
296.000000 -287.000000 65032.000000 53 79 1
297.000000 -287.000000 65032.000000 49 82 1
298.000000 -287.000000 65032.000000 55 83 1
299.000000 -287.000000 65032.000000 61 88 1
302.000000 -287.000000 65023.000000 70 96 1
303.000000 -287.000000 65022.000000 73 97 2
304.000000 -287.000000 65022.000000 76 96 3
305.000000 -287.000000 65021.000000 79 95 11
306.000000 -287.000000 65020.000000 86 97 19
307.000000 -287.000000 65017.000000 93 96 35
308.000000 -287.000000 65017.000000 87 81 51
309.000000 -287.000000 65016.000000 80 79 44
310.000000 -287.000000 65012.000000 86 97 38
311.000000 -287.000000 65010.000000 91 104 27
312.000000 -287.000000 65010.000000 87 98 17
313.000000 -287.000000 65009.000000 83 90 18
314.000000 -287.000000 65009.000000 81 87 20
315.000000 -287.000000 65009.000000 79 82 11
316.000000 -287.000000 65009.000000 80 78 3
259.000000 -288.000000 65028.000000 26 44 7
260.000000 -288.000000 65029.000000 28 42 14
261.000000 -288.000000 65029.000000 30 42 8
262.000000 -288.000000 65029.000000 30 43 1
263.000000 -288.000000 65031.000000 31 41 3
264.000000 -288.000000 65032.000000 31 40 5
265.000000 -288.000000 65032.000000 31 41 3
266.000000 -288.000000 65031.000000 34 43 1
267.000000 -288.000000 65031.000000 37 45 2
268.000000 -288.000000 65032.000000 38 49 4
269.000000 -288.000000 65032.000000 40 54 2
270.000000 -288.000000 65032.000000 40 54 1
271.000000 -288.000000 65032.000000 40 47 1
272.000000 -288.000000 65032.000000 32 42 1
273.000000 -288.000000 65032.000000 24 41 3
274.000000 -288.000000 65032.000000 24 41 5
275.000000 -288.000000 65032.000000 24 38 3
276.000000 -288.000000 65032.000000 22 39 1
277.000000 -288.000000 65032.000000 21 42 1
278.000000 -288.000000 65032.000000 26 47 1
279.000000 -288.000000 65032.000000 31 46 11
280.000000 -288.000000 65032.000000 31 46 21
281.000000 -288.000000 65032.000000 32 34 11
282.000000 -288.000000 65032.000000 30 39 1
283.000000 -288.000000 65032.000000 29 36 1
284.000000 -288.000000 65032.000000 33 34 2
285.000000 -288.000000 65032.000000 37 33 3
286.000000 -288.000000 65032.000000 34 31 4
287.000000 -288.000000 65032.000000 32 31 11
288.000000 -288.000000 65032.000000 32 34 19
289.000000 -288.000000 65032.000000 33 38 10
290.000000 -288.000000 65032.000000 36 40 1
291.000000 -288.000000 65032.000000 39 46 1
292.000000 -288.000000 65032.000000 44 49 1
293.000000 -288.000000 65032.000000 50 58 11
294.000000 -288.000000 65032.000000 54 64 22
295.000000 -288.000000 65032.000000 59 74 11
296.000000 -288.000000 65032.000000 59 80 1
297.000000 -288.000000 65032.000000 59 81 1
298.000000 -288.000000 65032.000000 62 86 1
299.000000 -288.000000 65032.000000 65 88 1
302.000000 -288.000000 65022.000000 71 96 1
303.000000 -288.000000 65022.000000 74 97 2
304.000000 -288.000000 65022.000000 77 97 3
305.000000 -288.000000 65021.000000 80 94 7
306.000000 -288.000000 65019.000000 84 99 11
307.000000 -288.000000 65019.000000 88 97 27
308.000000 -288.000000 65017.000000 80 80 44
309.000000 -288.000000 65016.000000 72 84 36
310.000000 -288.000000 65016.000000 80 94 28
311.000000 -288.000000 65016.000000 88 95 20
312.000000 -288.000000 65011.000000 84 97 12
313.000000 -288.000000 65010.000000 81 92 12
314.000000 -288.000000 65010.000000 80 86 12
315.000000 -288.000000 65009.000000 79 84 16
316.000000 -288.000000 65009.000000 79 80 21
259.000000 -289.000000 65028.000000 28 34 1
260.000000 -289.000000 65029.000000 31 41 1
261.000000 -289.000000 65029.000000 34 41 1
262.000000 -289.000000 65029.000000 32 41 1
263.000000 -289.000000 65031.000000 31 34 1
264.000000 -289.000000 65031.000000 28 37 1
265.000000 -289.000000 65030.000000 26 40 1
266.000000 -289.000000 65031.000000 31 41 2
267.000000 -289.000000 65031.000000 37 47 4
268.000000 -289.000000 65032.000000 38 48 7
269.000000 -289.000000 65032.000000 39 53 4
270.000000 -289.000000 65032.000000 39 52 1
271.000000 -289.000000 65032.000000 40 49 1
272.000000 -289.000000 65032.000000 35 42 1
273.000000 -289.000000 65032.000000 30 39 1
274.000000 -289.000000 65032.000000 27 39 1
275.000000 -289.000000 65032.000000 24 38 1
276.000000 -289.000000 65032.000000 19 38 1
277.000000 -289.000000 65032.000000 15 38 1
278.000000 -289.000000 65031.000000 21 48 1
279.000000 -289.000000 65032.000000 28 44 21
280.000000 -289.000000 65032.000000 28 43 41
281.000000 -289.000000 65032.000000 28 32 21
282.000000 -289.000000 65032.000000 27 29 1
283.000000 -289.000000 65033.000000 26 26 2
284.000000 -289.000000 65032.000000 28 32 3
285.000000 -289.000000 65032.000000 31 32 5
286.000000 -289.000000 65032.000000 29 31 7
287.000000 -289.000000 65032.000000 27 30 20
288.000000 -289.000000 65032.000000 27 34 34
289.000000 -289.000000 65032.000000 28 39 17
290.000000 -289.000000 65032.000000 30 40 1
291.000000 -289.000000 65032.000000 32 49 1
292.000000 -289.000000 65032.000000 40 49 1
293.000000 -289.000000 65032.000000 49 56 22
294.000000 -289.000000 65032.000000 53 63 43
295.000000 -289.000000 65032.000000 58 73 22
296.000000 -289.000000 65032.000000 58 78 1
297.000000 -289.000000 65032.000000 57 81 1
298.000000 -289.000000 65032.000000 60 84 2
299.000000 -289.000000 65032.000000 62 88 1
302.000000 -289.000000 65022.000000 71 97 1
