ply
    format ascii 1.0
    element vertex 10768
    property float x
    property float y
    property float z
    property uchar red
    property uchar green
    property uchar blue
    end_header
290.000000 -276.000000 65032.000000 61 80 1
291.000000 -276.000000 65030.000000 63 80 7
292.000000 -276.000000 65029.000000 59 83 14
293.000000 -276.000000 65029.000000 56 81 12
294.000000 -276.000000 65028.000000 33 41 11
295.000000 -276.000000 65028.000000 10 47 13
296.000000 -276.000000 65028.000000 31 53 15
297.000000 -276.000000 65026.000000 53 69 8
298.000000 -276.000000 65026.000000 64 87 1
299.000000 -276.000000 65026.000000 76 87 1
300.000000 -276.000000 65026.000000 74 87 1
301.000000 -276.000000 65026.000000 73 83 13
302.000000 -276.000000 65026.000000 68 80 25
303.000000 -276.000000 65026.000000 64 79 13
304.000000 -276.000000 65026.000000 57 79 1
305.000000 -276.000000 65026.000000 50 67 5
306.000000 -276.000000 65026.000000 30 30 9
249.000000 -277.000000 65017.000000 17 16 3
250.000000 -277.000000 65017.000000 31 58 2
251.000000 -277.000000 65017.000000 46 60 1
252.000000 -277.000000 65018.000000 42 47 1
253.000000 -277.000000 65019.000000 39 42 1
254.000000 -277.000000 65020.000000 38 43 1
255.000000 -277.000000 65021.000000 37 44 1
256.000000 -277.000000 65023.000000 33 43 1
257.000000 -277.000000 65023.000000 30 42 1
258.000000 -277.000000 65023.000000 28 43 1
259.000000 -277.000000 65023.000000 26 45 1
260.000000 -277.000000 65023.000000 23 45 1
261.000000 -277.000000 65025.000000 20 46 1
262.000000 -277.000000 65026.000000 31 54 1
263.000000 -277.000000 65029.000000 43 57 1
264.000000 -277.000000 65030.000000 46 55 1
265.000000 -277.000000 65031.000000 50 51 5
266.000000 -277.000000 65032.000000 51 50 10
267.000000 -277.000000 65032.000000 51 50 7
268.000000 -277.000000 65032.000000 49 50 5
269.000000 -277.000000 65032.000000 48 50 4
270.000000 -277.000000 65034.000000 48 54 3
271.000000 -277.000000 65035.000000 49 51 2
272.000000 -277.000000 65035.000000 53 49 1
273.000000 -277.000000 65035.000000 57 49 1
274.000000 -277.000000 65035.000000 50 51 1
275.000000 -277.000000 65035.000000 43 53 1
276.000000 -277.000000 65035.000000 37 53 1
277.000000 -277.000000 65035.000000 31 53 1
278.000000 -277.000000 65035.000000 37 59 1
279.000000 -277.000000 65035.000000 42 69 1
280.000000 -277.000000 65035.000000 50 69 1
281.000000 -277.000000 65035.000000 59 70 1
282.000000 -277.000000 65035.000000 55 72 1
283.000000 -277.000000 65035.000000 52 76 1
284.000000 -277.000000 65033.000000 53 77 1
285.000000 -277.000000 65033.000000 54 77 1
286.000000 -277.000000 65033.000000 52 77 1
287.000000 -277.000000 65032.000000 50 78 1
288.000000 -277.000000 65032.000000 54 78 1
289.000000 -277.000000 65032.000000 58 78 1
290.000000 -277.000000 65032.000000 60 79 1
291.000000 -277.000000 65031.000000 62 80 1
292.000000 -277.000000 65030.000000 59 76 1
293.000000 -277.000000 65029.000000 55 73 1
294.000000 -277.000000 65029.000000 39 42 1
295.000000 -277.000000 65028.000000 23 41 2
296.000000 -277.000000 65028.000000 35 50 4
297.000000 -277.000000 65028.000000 47 58 2
298.000000 -277.000000 65027.000000 57 72 1
299.000000 -277.000000 65027.000000 68 90 1
300.000000 -277.000000 65026.000000 68 83 1
301.000000 -277.000000 65026.000000 68 81 25
302.000000 -277.000000 65026.000000 65 81 49
303.000000 -277.000000 65026.000000 63 85 25
304.000000 -277.000000 65026.000000 59 85 2
305.000000 -277.000000 65025.000000 56 86 9
306.000000 -277.000000 65025.000000 48 71 17
308.000000 -277.000000 65022.000000 59 83 25
309.000000 -277.000000 65021.000000 80 90 13
310.000000 -277.000000 65021.000000 78 92 1
311.000000 -277.000000 65021.000000 77 94 5
312.000000 -277.000000 65020.000000 76 89 9
313.000000 -277.000000 65020.000000 75 85 31
314.000000 -277.000000 65020.000000 79 83 54
249.000000 -278.000000 65017.000000 17 15 11
250.000000 -278.000000 65017.000000 29 51 16
251.000000 -278.000000 65017.000000 42 46 8
252.000000 -278.000000 65017.000000 38 41 1
253.000000 -278.000000 65019.000000 34 40 1
254.000000 -278.000000 65020.000000 32 36 1
255.000000 -278.000000 65021.000000 30 34 1
256.000000 -278.000000 65023.000000 25 32 1
257.000000 -278.000000 65023.000000 21 33 1
258.000000 -278.000000 65023.000000 19 34 1
259.000000 -278.000000 65024.000000 17 43 1
260.000000 -278.000000 65024.000000 13 44 1
261.000000 -278.000000 65025.000000 9 47 1
262.000000 -278.000000 65026.000000 25 53 1
263.000000 -278.000000 65029.000000 41 56 1
264.000000 -278.000000 65030.000000 44 56 1
265.000000 -278.000000 65031.000000 47 49 8
266.000000 -278.000000 65031.000000 48 50 16
267.000000 -278.000000 65032.000000 50 50 11
268.000000 -278.000000 65032.000000 48 50 6
269.000000 -278.000000 65032.000000 47 50 8
270.000000 -278.000000 65034.000000 48 54 10
271.000000 -278.000000 65035.000000 49 50 21
272.000000 -278.000000 65035.000000 57 49 32
273.000000 -278.000000 65035.000000 65 47 17
274.000000 -278.000000 65035.000000 54 45 2
275.000000 -278.000000 65036.000000 44 47 1
276.000000 -278.000000 65037.000000 39 49 1
277.000000 -278.000000 65037.000000 34 51 1
278.000000 -278.000000 65036.000000 36 57 2
279.000000 -278.000000 65036.000000 39 66 1
280.000000 -278.000000 65035.000000 45 72 1
281.000000 -278.000000 65035.000000 51 72 1
282.000000 -278.000000 65035.000000 50 74 1
283.000000 -278.000000 65033.000000 50 75 1
284.000000 -278.000000 65033.000000 52 77 1
285.000000 -278.000000 65033.000000 54 77 1
286.000000 -278.000000 65032.000000 50 78 1
287.000000 -278.000000 65032.000000 47 78 1
288.000000 -278.000000 65032.000000 51 78 1
289.000000 -278.000000 65032.000000 56 78 1
290.000000 -278.000000 65032.000000 59 76 1
291.000000 -278.000000 65031.000000 62 74 1
292.000000 -278.000000 65030.000000 58 73 2
293.000000 -278.000000 65029.000000 55 70 3
294.000000 -278.000000 65029.000000 46 43 5
295.000000 -278.000000 65028.000000 37 40 5
296.000000 -278.000000 65028.000000 39 48 5
297.000000 -278.000000 65027.000000 41 51 5
298.000000 -278.000000 65027.000000 50 55 5
299.000000 -278.000000 65026.000000 60 82 3
300.000000 -278.000000 65026.000000 61 79 1
301.000000 -278.000000 65026.000000 63 82 13
302.000000 -278.000000 65026.000000 62 83 25
303.000000 -278.000000 65026.000000 62 84 13
304.000000 -278.000000 65025.000000 62 87 1
305.000000 -278.000000 65024.000000 63 87 5
306.000000 -278.000000 65024.000000 66 94 9
307.000000 -278.000000 65022.000000 69 94 11
308.000000 -278.000000 65022.000000 79 95 14
309.000000 -278.000000 65021.000000 89 92 22
310.000000 -278.000000 65020.000000 83 89 30
311.000000 -278.000000 65020.000000 77 90 19
312.000000 -278.000000 65021.000000 78 86 8
313.000000 -278.000000 65021.000000 79 84 24
314.000000 -278.000000 65021.000000 81 82 40
249.000000 -279.000000 65017.000000 20 14 19
250.000000 -279.000000 65017.000000 32 55 31
251.000000 -279.000000 65017.000000 43 45 16
252.000000 -279.000000 65018.000000 40 38 1
253.000000 -279.000000 65019.000000 36 38 1
254.000000 -279.000000 65020.000000 35 36 1
255.000000 -279.000000 65022.000000 34 33 1
256.000000 -279.000000 65023.000000 29 34 1
257.000000 -279.000000 65023.000000 23 36 1
258.000000 -279.000000 65023.000000 21 35 1
259.000000 -279.000000 65024.000000 20 41 1
260.000000 -279.000000 65024.000000 17 45 1
261.000000 -279.000000 65025.000000 15 49 1
262.000000 -279.000000 65026.000000 26 51 2
263.000000 -279.000000 65029.000000 38 56 1
264.000000 -279.000000 65030.000000 42 51 1
265.000000 -279.000000 65032.000000 46 47 11
266.000000 -279.000000 65032.000000 46 47 22
267.000000 -279.000000 65032.000000 46 47 14
268.000000 -279.000000 65032.000000 44 46 7
269.000000 -279.000000 65032.000000 43 46 12
270.000000 -279.000000 65033.000000 44 46 18
271.000000 -279.000000 65035.000000 45 46 41
272.000000 -279.000000 65035.000000 50 48 64
273.000000 -279.000000 65035.000000 55 54 33
274.000000 -279.000000 65035.000000 47 47 3
275.000000 -279.000000 65036.000000 39 48 2
276.000000 -279.000000 65037.000000 33 49 1
277.000000 -279.000000 65037.000000 26 50 2
278.000000 -279.000000 65036.000000 33 56 3
279.000000 -279.000000 65036.000000 40 64 2
280.000000 -279.000000 65035.000000 46 69 2
281.000000 -279.000000 65035.000000 53 72 1
282.000000 -279.000000 65035.000000 51 74 1
283.000000 -279.000000 65034.000000 50 71 1
284.000000 -279.000000 65033.000000 51 75 2
285.000000 -279.000000 65033.000000 53 78 1
286.000000 -279.000000 65033.000000 51 77 1
287.000000 -279.000000 65032.000000 50 77 1
288.000000 -279.000000 65032.000000 54 78 1
289.000000 -279.000000 65032.000000 57 80 1
290.000000 -279.000000 65032.000000 60 77 1
291.000000 -279.000000 65032.000000 62 75 2
292.000000 -279.000000 65031.000000 60 75 3
293.000000 -279.000000 65030.000000 57 67 6
294.000000 -279.000000 65029.000000 49 46 9
295.000000 -279.000000 65028.000000 41 39 8
296.000000 -279.000000 65028.000000 44 45 7
297.000000 -279.000000 65027.000000 48 46 8
298.000000 -279.000000 65026.000000 56 63 9
299.000000 -279.000000 65026.000000 65 74 5
300.000000 -279.000000 65026.000000 64 79 1
301.000000 -279.000000 65026.000000 64 84 1
302.000000 -279.000000 65026.000000 62 83 1
303.000000 -279.000000 65025.000000 61 84 1
304.000000 -279.000000 65025.000000 60 86 1
305.000000 -279.000000 65024.000000 60 89 1
306.000000 -279.000000 65023.000000 66 92 1
307.000000 -279.000000 65023.000000 73 94 2
308.000000 -279.000000 65022.000000 79 95 3
309.000000 -279.000000 65022.000000 85 96 31
310.000000 -279.000000 65022.000000 81 90 60
311.000000 -279.000000 65021.000000 78 91 33
312.000000 -279.000000 65021.000000 79 88 7
313.000000 -279.000000 65021.000000 80 83 17
314.000000 -279.000000 65021.000000 83 79 27
249.000000 -280.000000 65017.000000 24 11 10
250.000000 -280.000000 65017.000000 34 59 16
251.000000 -280.000000 65017.000000 45 49 8
252.000000 -280.000000 65018.000000 42 35 1
253.000000 -280.000000 65019.000000 39 35 1
254.000000 -280.000000 65020.000000 39 36 1
255.000000 -280.000000 65020.000000 39 39 1
256.000000 -280.000000 65023.000000 32 42 1
257.000000 -280.000000 65023.000000 26 39 1
258.000000 -280.000000 65023.000000 24 37 1
259.000000 -280.000000 65024.000000 23 43 1
260.000000 -280.000000 65025.000000 22 46 1
261.000000 -280.000000 65026.000000 22 49 1
262.000000 -280.000000 65028.000000 28 49 1
263.000000 -280.000000 65029.000000 35 47 1
264.000000 -280.000000 65029.000000 40 45 1
265.000000 -280.000000 65031.000000 46 43 6
266.000000 -280.000000 65031.000000 44 42 11
267.000000 -280.000000 65032.000000 42 41 9
268.000000 -280.000000 65032.000000 40 41 7
269.000000 -280.000000 65033.000000 39 41 10
270.000000 -280.000000 65034.000000 40 41 13
271.000000 -280.000000 65035.000000 41 45 22
272.000000 -280.000000 65035.000000 43 47 32
273.000000 -280.000000 65035.000000 45 48 17
274.000000 -280.000000 65035.000000 40 49 2
275.000000 -280.000000 65036.000000 35 49 1
276.000000 -280.000000 65037.000000 27 49 1
277.000000 -280.000000 65036.000000 19 49 1
278.000000 -280.000000 65036.000000 30 55 2
279.000000 -280.000000 65035.000000 41 63 1
280.000000 -280.000000 65035.000000 48 67 1
281.000000 -280.000000 65035.000000 55 74 1
282.000000 -280.000000 65035.000000 53 74 1
283.000000 -280.000000 65035.000000 51 74 7
284.000000 -280.000000 65034.000000 51 74 14
285.000000 -280.000000 65033.000000 52 76 7
286.000000 -280.000000 65033.000000 53 77 1
287.000000 -280.000000 65032.000000 54 77 1
288.000000 -280.000000 65032.000000 56 78 1
289.000000 -280.000000 65032.000000 59 78 1
290.000000 -280.000000 65032.000000 61 78 1
291.000000 -280.000000 65031.000000 63 77 2
292.000000 -280.000000 65031.000000 61 77 3
293.000000 -280.000000 65030.000000 60 71 8
294.000000 -280.000000 65029.000000 53 50 14
295.000000 -280.000000 65029.000000 46 41 16
296.000000 -280.000000 65029.000000 50 42 18
297.000000 -280.000000 65029.000000 55 55 11
298.000000 -280.000000 65027.000000 63 72 5
299.000000 -280.000000 65026.000000 71 76 3
300.000000 -280.000000 65026.000000 68 80 1
301.000000 -280.000000 65026.000000 65 81 2
302.000000 -280.000000 65026.000000 62 83 3
303.000000 -280.000000 65025.000000 60 84 2
304.000000 -280.000000 65025.000000 58 85 1
305.000000 -280.000000 65024.000000 57 88 1
306.000000 -280.000000 65023.000000 67 91 1
307.000000 -280.000000 65023.000000 77 93 1
308.000000 -280.000000 65022.000000 79 96 2
309.000000 -280.000000 65022.000000 82 94 16
310.000000 -280.000000 65021.000000 80 92 30
311.000000 -280.000000 65021.000000 79 91 17
312.000000 -280.000000 65021.000000 80 90 4
313.000000 -280.000000 65021.000000 82 79 16
248.000000 -281.000000 65016.000000 13 5 2
249.000000 -281.000000 65017.000000 22 9 2
250.000000 -281.000000 65018.000000 34 61 2
251.000000 -281.000000 65018.000000 47 54 1
252.000000 -281.000000 65018.000000 45 48 1
253.000000 -281.000000 65019.000000 44 42 1
254.000000 -281.000000 65020.000000 45 44 1
255.000000 -281.000000 65020.000000 47 46 1
256.000000 -281.000000 65023.000000 39 46 1
257.000000 -281.000000 65023.000000 31 46 1
258.000000 -281.000000 65023.000000 29 46 1
259.000000 -281.000000 65024.000000 26 46 1
260.000000 -281.000000 65025.000000 26 47 1
261.000000 -281.000000 65026.000000 26 50 1
262.000000 -281.000000 65028.000000 30 49 1
263.000000 -281.000000 65029.000000 35 47 1
264.000000 -281.000000 65030.000000 38 44 1
265.000000 -281.000000 65031.000000 42 38 1
266.000000 -281.000000 65031.000000 41 42 1
267.000000 -281.000000 65032.000000 40 34 4
268.000000 -281.000000 65032.000000 39 40 7
269.000000 -281.000000 65033.000000 38 39 7
270.000000 -281.000000 65034.000000 39 43 8
271.000000 -281.000000 65035.000000 41 45 4
272.000000 -281.000000 65035.000000 44 45 1
273.000000 -281.000000 65035.000000 48 45 1
274.000000 -281.000000 65035.000000 43 47 1
275.000000 -281.000000 65037.000000 38 53 1
276.000000 -281.000000 65037.000000 31 51 1
277.000000 -281.000000 65037.000000 24 49 1
278.000000 -281.000000 65037.000000 32 55 1
279.000000 -281.000000 65037.000000 41 62 1
280.000000 -281.000000 65036.000000 46 69 1
281.000000 -281.000000 65035.000000 52 76 1
282.000000 -281.000000 65035.000000 50 75 1
283.000000 -281.000000 65035.000000 48 74 14
284.000000 -281.000000 65035.000000 50 74 27
285.000000 -281.000000 65033.000000 52 75 14
286.000000 -281.000000 65033.000000 52 77 1
287.000000 -281.000000 65032.000000 52 77 1
288.000000 -281.000000 65032.000000 55 78 1
289.000000 -281.000000 65032.000000 59 81 1
290.000000 -281.000000 65032.000000 63 81 1
291.000000 -281.000000 65031.000000 67 81 2
292.000000 -281.000000 65031.000000 67 78 3
293.000000 -281.000000 65030.000000 67 76 11
294.000000 -281.000000 65029.000000 59 54 20
295.000000 -281.000000 65029.000000 50 44 24
296.000000 -281.000000 65029.000000 55 48 29
297.000000 -281.000000 65028.000000 59 64 15
298.000000 -281.000000 65027.000000 66 76 1
299.000000 -281.000000 65026.000000 74 79 1
300.000000 -281.000000 65026.000000 70 79 1
301.000000 -281.000000 65026.000000 66 80 3
302.000000 -281.000000 65026.000000 64 80 6
303.000000 -281.000000 65026.000000 62 80 3
304.000000 -281.000000 65025.000000 61 83 1
305.000000 -281.000000 65024.000000 61 88 1
306.000000 -281.000000 65023.000000 68 91 1
307.000000 -281.000000 65023.000000 75 93 1
308.000000 -281.000000 65022.000000 75 92 2
309.000000 -281.000000 65021.000000 76 89 1
310.000000 -281.000000 65022.000000 77 91 1
311.000000 -281.000000 65021.000000 78 93 1
312.000000 -281.000000 65022.000000 78 87 1
313.000000 -281.000000 65022.000000 79 76 15
248.000000 -282.000000 65016.000000 12 6 5
249.000000 -282.000000 65017.000000 20 11 6
250.000000 -282.000000 65018.000000 34 64 7
251.000000 -282.000000 65018.000000 49 56 4
252.000000 -282.000000 65019.000000 49 50 1
253.000000 -282.000000 65020.000000 49 50 1
254.000000 -282.000000 65020.000000 52 51 1
255.000000 -282.000000 65021.000000 56 46 1
256.000000 -282.000000 65021.000000 46 49 1
257.000000 -282.000000 65022.000000 37 44 1
258.000000 -282.000000 65023.000000 33 44 1
259.000000 -282.000000 65023.000000 30 44 1
260.000000 -282.000000 65026.000000 30 49 1
261.000000 -282.000000 65026.000000 30 49 1
262.000000 -282.000000 65028.000000 32 49 1
263.000000 -282.000000 65029.000000 35 45 1
264.000000 -282.000000 65029.000000 37 43 1
265.000000 -282.000000 65031.000000 39 42 1
266.000000 -282.000000 65031.000000 38 42 1
267.000000 -282.000000 65032.000000 38 34 2
268.000000 -282.000000 65032.000000 37 40 4
269.000000 -282.000000 65034.000000 37 37 5
270.000000 -282.000000 65035.000000 39 45 6
271.000000 -282.000000 65035.000000 42 45 7
272.000000 -282.000000 65035.000000 46 44 8
273.000000 -282.000000 65035.000000 51 45 4
274.000000 -282.000000 65035.000000 46 45 1
275.000000 -282.000000 65036.000000 41 44 1
276.000000 -282.000000 65036.000000 35 44 1
277.000000 -282.000000 65036.000000 29 51 1
278.000000 -282.000000 65035.000000 35 55 1
279.000000 -282.000000 65035.000000 41 63 1
280.000000 -282.000000 65035.000000 45 71 1
281.000000 -282.000000 65035.000000 50 76 1
282.000000 -282.000000 65035.000000 48 76 1
283.000000 -282.000000 65035.000000 46 76 7
284.000000 -282.000000 65035.000000 49 76 14
285.000000 -282.000000 65033.000000 53 75 7
286.000000 -282.000000 65033.000000 51 78 1
287.000000 -282.000000 65032.000000 50 78 1
288.000000 -282.000000 65032.000000 55 78 1
289.000000 -282.000000 65032.000000 60 80 1
290.000000 -282.000000 65032.000000 66 82 1
291.000000 -282.000000 65031.000000 72 81 19
292.000000 -282.000000 65031.000000 73 86 38
293.000000 -282.000000 65031.000000 75 79 29
294.000000 -282.000000 65030.000000 65 59 20
295.000000 -282.000000 65029.000000 55 57 17
296.000000 -282.000000 65029.000000 59 55 15
297.000000 -282.000000 65029.000000 64 70 8
298.000000 -282.000000 65028.000000 70 80 2
299.000000 -282.000000 65027.000000 77 79 1
300.000000 -282.000000 65026.000000 72 78 1
301.000000 -282.000000 65026.000000 67 80 2
302.000000 -282.000000 65026.000000 65 81 3
303.000000 -282.000000 65026.000000 64 81 2
304.000000 -282.000000 65025.000000 65 82 1
305.000000 -282.000000 65024.000000 66 86 4
306.000000 -282.000000 65023.000000 69 91 7
307.000000 -282.000000 65023.000000 73 91 4
308.000000 -282.000000 65022.000000 72 92 1
309.000000 -282.000000 65022.000000 71 86 1
310.000000 -282.000000 65022.000000 74 80 1
311.000000 -282.000000 65021.000000 77 82 1
312.000000 -282.000000 65021.000000 77 84 2
313.000000 -282.000000 65021.000000 77 82 13
249.000000 -283.000000 65017.000000 19 13 10
250.000000 -283.000000 65019.000000 36 60 13
251.000000 -283.000000 65019.000000 53 59 7
252.000000 -283.000000 65020.000000 50 48 1
253.000000 -283.000000 65020.000000 48 50 1
254.000000 -283.000000 65020.000000 50 48 1
255.000000 -283.000000 65021.000000 53 47 1
256.000000 -283.000000 65021.000000 44 48 1
257.000000 -283.000000 65022.000000 36 43 1
258.000000 -283.000000 65023.000000 33 44 1
259.000000 -283.000000 65023.000000 29 42 1
260.000000 -283.000000 65026.000000 29 43 1
261.000000 -283.000000 65026.000000 30 45 1
262.000000 -283.000000 65028.000000 32 49 1
263.000000 -283.000000 65029.000000 34 41 1
264.000000 -283.000000 65029.000000 34 38 1
265.000000 -283.000000 65030.000000 34 30 1
266.000000 -283.000000 65031.000000 33 32 1
267.000000 -283.000000 65032.000000 33 34 1
268.000000 -283.000000 65033.000000 31 34 1
269.000000 -283.000000 65034.000000 30 35 2
270.000000 -283.000000 65035.000000 35 41 4
271.000000 -283.000000 65035.000000 40 45 10
272.000000 -283.000000 65035.000000 44 45 16
273.000000 -283.000000 65035.000000 48 45 8
274.000000 -283.000000 65036.000000 44 45 1
275.000000 -283.000000 65036.000000 40 42 1
276.000000 -283.000000 65036.000000 36 45 1
277.000000 -283.000000 65035.000000 33 53 1
278.000000 -283.000000 65035.000000 38 56 1
279.000000 -283.000000 65035.000000 43 64 1
280.000000 -283.000000 65035.000000 47 74 1
281.000000 -283.000000 65035.000000 51 77 1
282.000000 -283.000000 65035.000000 51 77 1
283.000000 -283.000000 65035.000000 50 77 1
284.000000 -283.000000 65035.000000 54 76 1
285.000000 -283.000000 65034.000000 57 73 1
286.000000 -283.000000 65033.000000 55 77 1
287.000000 -283.000000 65033.000000 52 79 1
288.000000 -283.000000 65032.000000 56 79 1
289.000000 -283.000000 65032.000000 59 80 1
290.000000 -283.000000 65032.000000 65 80 1
291.000000 -283.000000 65032.000000 70 81 37
292.000000 -283.000000 65031.000000 76 86 74
293.000000 -283.000000 65031.000000 82 82 47
294.000000 -283.000000 65030.000000 72 76 20
295.000000 -283.000000 65030.000000 62 71 10
296.000000 -283.000000 65029.000000 66 73 1
297.000000 -283.000000 65028.000000 71 76 2
298.000000 -283.000000 65028.000000 78 81 3
299.000000 -283.000000 65027.000000 86 90 2
300.000000 -283.000000 65026.000000 76 78 1
301.000000 -283.000000 65026.000000 67 81 1
302.000000 -283.000000 65026.000000 64 81 1
303.000000 -283.000000 65026.000000 61 78 1
304.000000 -283.000000 65025.000000 61 82 1
305.000000 -283.000000 65025.000000 62 85 7
306.000000 -283.000000 65023.000000 60 90 14
307.000000 -283.000000 65023.000000 59 88 7
308.000000 -283.000000 65023.000000 56 85 1
309.000000 -283.000000 65022.000000 53 83 1
310.000000 -283.000000 65022.000000 60 80 1
311.000000 -283.000000 65021.000000 68 77 2
312.000000 -283.000000 65021.000000 73 85 3
313.000000 -283.000000 65021.000000 78 84 10
249.000000 -284.000000 65017.000000 18 11 13
250.000000 -284.000000 65019.000000 38 57 7
251.000000 -284.000000 65019.000000 58 58 4
252.000000 -284.000000 65020.000000 52 47 1
253.000000 -284.000000 65020.000000 47 49 1
254.000000 -284.000000 65020.000000 48 44 1
255.000000 -284.000000 65021.000000 50 45 1
256.000000 -284.000000 65021.000000 43 47 1
257.000000 -284.000000 65023.000000 36 45 1
258.000000 -284.000000 65023.000000 32 44 1
259.000000 -284.000000 65024.000000 29 43 1
260.000000 -284.000000 65026.000000 29 40 1
261.000000 -284.000000 65026.000000 30 44 4
262.000000 -284.000000 65028.000000 32 49 7
263.000000 -284.000000 65028.000000 34 41 4
264.000000 -284.000000 65029.000000 32 34 1
265.000000 -284.000000 65030.000000 30 31 1
266.000000 -284.000000 65030.000000 29 28 1
267.000000 -284.000000 65032.000000 28 29 1
268.000000 -284.000000 65032.000000 25 30 1
269.000000 -284.000000 65033.000000 23 38 1
270.000000 -284.000000 65034.000000 31 37 2
271.000000 -284.000000 65035.000000 39 45 5
272.000000 -284.000000 65035.000000 42 47 8
273.000000 -284.000000 65035.000000 45 46 4
274.000000 -284.000000 65035.000000 42 46 1
275.000000 -284.000000 65035.000000 39 46 1
276.000000 -284.000000 65035.000000 38 46 1
277.000000 -284.000000 65035.000000 37 55 1
278.000000 -284.000000 65035.000000 41 58 1
279.000000 -284.000000 65035.000000 45 66 1
280.000000 -284.000000 65035.000000 49 77 1
281.000000 -284.000000 65035.000000 53 77 1
282.000000 -284.000000 65035.000000 54 78 1
283.000000 -284.000000 65035.000000 55 77 1
284.000000 -284.000000 65035.000000 58 77 1
285.000000 -284.000000 65034.000000 62 76 1
286.000000 -284.000000 65034.000000 58 76 1
287.000000 -284.000000 65033.000000 55 76 1
288.000000 -284.000000 65032.000000 57 76 1
289.000000 -284.000000 65032.000000 59 76 1
290.000000 -284.000000 65032.000000 64 76 2
291.000000 -284.000000 65031.000000 69 81 24
292.000000 -284.000000 65031.000000 79 86 47
293.000000 -284.000000 65031.000000 89 80 29
294.000000 -284.000000 65030.000000 79 73 11
295.000000 -284.000000 65029.000000 69 72 7
296.000000 -284.000000 65029.000000 74 78 4
297.000000 -284.000000 65028.000000 79 75 11
298.000000 -284.000000 65028.000000 87 82 18
299.000000 -284.000000 65027.000000 95 80 9
300.000000 -284.000000 65026.000000 81 78 1
301.000000 -284.000000 65026.000000 67 79 1
302.000000 -284.000000 65026.000000 62 81 1
303.000000 -284.000000 65026.000000 58 82 1
304.000000 -284.000000 65026.000000 58 83 1
305.000000 -284.000000 65025.000000 58 84 4
306.000000 -284.000000 65024.000000 52 89 7
307.000000 -284.000000 65024.000000 46 68 11
308.000000 -284.000000 65023.000000 41 10 15
309.000000 -284.000000 65022.000000 36 28 18
310.000000 -284.000000 65022.000000 47 46 21
311.000000 -284.000000 65022.000000 59 69 12
312.000000 -284.000000 65021.000000 69 87 3
313.000000 -284.000000 65021.000000 79 84 11
249.000000 -285.000000 65017.000000 26 10 16
250.000000 -285.000000 65020.000000 41 59 2
251.000000 -285.000000 65020.000000 56 58 1
252.000000 -285.000000 65020.000000 52 50 1
253.000000 -285.000000 65020.000000 48 49 1
254.000000 -285.000000 65020.000000 52 50 1
255.000000 -285.000000 65021.000000 55 51 1
256.000000 -285.000000 65023.000000 47 47 1
257.000000 -285.000000 65023.000000 39 46 1
258.000000 -285.000000 65023.000000 33 45 1
259.000000 -285.000000 65025.000000 28 44 1
260.000000 -285.000000 65026.000000 28 43 1
261.000000 -285.000000 65027.000000 28 43 7
262.000000 -285.000000 65028.000000 30 42 14
263.000000 -285.000000 65029.000000 32 42 7
264.000000 -285.000000 65029.000000 27 35 1
265.000000 -285.000000 65030.000000 22 39 1
266.000000 -285.000000 65031.000000 25 33 1
267.000000 -285.000000 65032.000000 29 31 1
268.000000 -285.000000 65033.000000 29 28 1
269.000000 -285.000000 65034.000000 30 41 1
270.000000 -285.000000 65034.000000 35 38 1
271.000000 -285.000000 65035.000000 40 45 1
272.000000 -285.000000 65035.000000 44 45 1
273.000000 -285.000000 65035.000000 49 49 1
274.000000 -285.000000 65035.000000 44 48 1
275.000000 -285.000000 65035.000000 40 48 1
276.000000 -285.000000 65035.000000 37 46 1
277.000000 -285.000000 65035.000000 34 58 1
278.000000 -285.000000 65035.000000 39 61 1
279.000000 -285.000000 65035.000000 44 69 1
280.000000 -285.000000 65035.000000 48 71 1
281.000000 -285.000000 65035.000000 52 74 1
282.000000 -285.000000 65035.000000 53 75 1
283.000000 -285.000000 65035.000000 54 77 1
284.000000 -285.000000 65035.000000 56 77 1
285.000000 -285.000000 65034.000000 58 79 1
286.000000 -285.000000 65033.000000 55 77 1
287.000000 -285.000000 65033.000000 52 76 1
288.000000 -285.000000 65032.000000 55 75 1
289.000000 -285.000000 65032.000000 59 73 2
290.000000 -285.000000 65032.000000 63 77 3
291.000000 -285.000000 65031.000000 68 82 12
292.000000 -285.000000 65031.000000 75 80 21
293.000000 -285.000000 65031.000000 82 79 12
294.000000 -285.000000 65031.000000 68 72 3
295.000000 -285.000000 65030.000000 54 66 5
296.000000 -285.000000 65030.000000 64 72 7
297.000000 -285.000000 65028.000000 75 74 20
298.000000 -285.000000 65028.000000 81 81 33
299.000000 -285.000000 65027.000000 88 79 17
300.000000 -285.000000 65026.000000 77 78 2
301.000000 -285.000000 65026.000000 67 78 1
302.000000 -285.000000 65026.000000 61 79 1
303.000000 -285.000000 65026.000000 55 82 1
304.000000 -285.000000 65026.000000 55 83 1
305.000000 -285.000000 65026.000000 55 84 1
306.000000 -285.000000 65025.000000 46 66 1
307.000000 -285.000000 65025.000000 38 49 15
308.000000 -285.000000 65024.000000 28 8 29
309.000000 -285.000000 65023.000000 18 26 35
310.000000 -285.000000 65023.000000 35 39 41
311.000000 -285.000000 65023.000000 52 62 22
250.000000 -286.000000 65020.000000 44 62 1
251.000000 -286.000000 65020.000000 55 54 1
252.000000 -286.000000 65020.000000 52 53 1
253.000000 -286.000000 65020.000000 50 48 3
254.000000 -286.000000 65020.000000 55 48 5
255.000000 -286.000000 65021.000000 61 47 3
256.000000 -286.000000 65023.000000 51 47 1
257.000000 -286.000000 65023.000000 42 44 1
258.000000 -286.000000 65023.000000 35 41 1
259.000000 -286.000000 65024.000000 28 41 1
260.000000 -286.000000 65026.000000 27 42 1
261.000000 -286.000000 65027.000000 26 42 4
262.000000 -286.000000 65028.000000 28 45 7
263.000000 -286.000000 65028.000000 30 42 4
264.000000 -286.000000 65029.000000 22 36 1
265.000000 -286.000000 65030.000000 14 36 10
266.000000 -286.000000 65031.000000 22 36 20
267.000000 -286.000000 65032.000000 30 33 10
268.000000 -286.000000 65033.000000 34 27 1
269.000000 -286.000000 65034.000000 38 37 1
270.000000 -286.000000 65034.000000 40 40 1
271.000000 -286.000000 65034.000000 42 42 1
272.000000 -286.000000 65035.000000 47 44 1
273.000000 -286.000000 65035.000000 53 47 1
274.000000 -286.000000 65035.000000 47 53 1
275.000000 -286.000000 65035.000000 41 49 1
276.000000 -286.000000 65035.000000 36 47 1
277.000000 -286.000000 65035.000000 31 58 1
278.000000 -286.000000 65035.000000 37 64 1
279.000000 -286.000000 65035.000000 43 68 6
280.000000 -286.000000 65035.000000 47 67 12
281.000000 -286.000000 65035.000000 51 70 6
282.000000 -286.000000 65035.000000 52 72 1
283.000000 -286.000000 65035.000000 53 75 1
284.000000 -286.000000 65035.000000 53 77 1
285.000000 -286.000000 65034.000000 54 77 1
286.000000 -286.000000 65034.000000 51 78 1
287.000000 -286.000000 65033.000000 49 76 1
288.000000 -286.000000 65032.000000 54 74 1
289.000000 -286.000000 65032.000000 59 73 2
290.000000 -286.000000 65032.000000 63 78 4
291.000000 -286.000000 65031.000000 68 80 8
292.000000 -286.000000 65031.000000 71 82 12
293.000000 -286.000000 65031.000000 75 77 7
294.000000 -286.000000 65031.000000 57 36 2
295.000000 -286.000000 65031.000000 40 62 6
296.000000 -286.000000 65030.000000 55 70 10
297.000000 -286.000000 65029.000000 71 74 14
298.000000 -286.000000 65029.000000 76 80 18
299.000000 -286.000000 65028.000000 81 81 9
300.000000 -286.000000 65027.000000 74 74 1
301.000000 -286.000000 65026.000000 68 76 1
302.000000 -286.000000 65026.000000 60 78 1
303.000000 -286.000000 65026.000000 53 79 1
304.000000 -286.000000 65026.000000 53 80 1
305.000000 -286.000000 65026.000000 53 81 1
306.000000 -286.000000 65025.000000 41 46 1
307.000000 -286.000000 65025.000000 30 39 8
308.000000 -286.000000 65024.000000 15 6 15
309.000000 -286.000000 65023.000000 1 21 21
310.000000 -286.000000 65023.000000 23 33 27
311.000000 -286.000000 65023.000000 46 56 19
250.000000 -287.000000 65020.000000 48 47 1
251.000000 -287.000000 65020.000000 58 50 1
252.000000 -287.000000 65020.000000 53 48 1
253.000000 -287.000000 65020.000000 48 47 5
254.000000 -287.000000 65020.000000 51 50 9
255.000000 -287.000000 65021.000000 55 54 5
256.000000 -287.000000 65022.000000 47 46 1
257.000000 -287.000000 65023.000000 40 42 1
258.000000 -287.000000 65023.000000 34 40 1
259.000000 -287.000000 65024.000000 28 39 1
260.000000 -287.000000 65026.000000 28 39 1
261.000000 -287.000000 65027.000000 29 40 1
262.000000 -287.000000 65028.000000 32 44 1
263.000000 -287.000000 65029.000000 35 43 1
264.000000 -287.000000 65029.000000 29 39 1
265.000000 -287.000000 65030.000000 24 33 20
266.000000 -287.000000 65032.000000 30 34 39
267.000000 -287.000000 65032.000000 37 35 20
268.000000 -287.000000 65033.000000 38 34 1
269.000000 -287.000000 65033.000000 39 34 1
270.000000 -287.000000 65034.000000 40 39 1
271.000000 -287.000000 65034.000000 42 40 1
272.000000 -287.000000 65035.000000 44 43 1
273.000000 -287.000000 65035.000000 47 45 1
274.000000 -287.000000 65035.000000 43 52 1
275.000000 -287.000000 65035.000000 40 51 1
276.000000 -287.000000 65035.000000 32 49 1
277.000000 -287.000000 65035.000000 24 59 1
278.000000 -287.000000 65035.000000 31 62 1
279.000000 -287.000000 65035.000000 39 67 12
280.000000 -287.000000 65035.000000 44 68 23
281.000000 -287.000000 65035.000000 50 69 12
282.000000 -287.000000 65035.000000 49 70 1
283.000000 -287.000000 65035.000000 48 74 1
284.000000 -287.000000 65035.000000 53 74 1
285.000000 -287.000000 65035.000000 58 75 1
286.000000 -287.000000 65034.000000 54 76 1
287.000000 -287.000000 65033.000000 51 77 1
288.000000 -287.000000 65032.000000 53 75 1
289.000000 -287.000000 65032.000000 56 74 3
290.000000 -287.000000 65032.000000 62 75 5
291.000000 -287.000000 65031.000000 67 77 4
292.000000 -287.000000 65031.000000 71 76 4
293.000000 -287.000000 65031.000000 74 76 2
294.000000 -287.000000 65031.000000 63 67 1
295.000000 -287.000000 65031.000000 52 58 7
296.000000 -287.000000 65030.000000 61 66 14
297.000000 -287.000000 65029.000000 71 74 8
298.000000 -287.000000 65029.000000 77 78 3
299.000000 -287.000000 65028.000000 84 83 2
300.000000 -287.000000 65027.000000 76 73 1
301.000000 -287.000000 65026.000000 68 74 1
302.000000 -287.000000 65026.000000 62 78 1
303.000000 -287.000000 65026.000000 55 79 1
304.000000 -287.000000 65026.000000 56 79 1
305.000000 -287.000000 65026.000000 57 79 1
306.000000 -287.000000 65026.000000 50 64 2
307.000000 -287.000000 65025.000000 43 30 1
308.000000 -287.000000 65025.000000 34 23 1
309.000000 -287.000000 65025.000000 26 17 7
310.000000 -287.000000 65025.000000 39 46 14
311.000000 -287.000000 65025.000000 52 50 15
250.000000 -288.000000 65020.000000 53 48 4
251.000000 -288.000000 65020.000000 62 51 2
252.000000 -288.000000 65020.000000 54 44 1
253.000000 -288.000000 65020.000000 46 46 3
254.000000 -288.000000 65021.000000 47 53 5
255.000000 -288.000000 65022.000000 49 49 3
256.000000 -288.000000 65022.000000 43 46 1
257.000000 -288.000000 65023.000000 38 42 1
258.000000 -288.000000 65024.000000 33 37 1
259.000000 -288.000000 65025.000000 28 41 1
260.000000 -288.000000 65026.000000 30 44 1
261.000000 -288.000000 65027.000000 32 44 1
262.000000 -288.000000 65028.000000 36 48 1
263.000000 -288.000000 65028.000000 40 42 1
264.000000 -288.000000 65030.000000 37 42 1
265.000000 -288.000000 65031.000000 34 40 10
266.000000 -288.000000 65032.000000 39 39 20
267.000000 -288.000000 65033.000000 45 32 10
268.000000 -288.000000 65033.000000 42 29 1
269.000000 -288.000000 65033.000000 40 34 3
270.000000 -288.000000 65034.000000 41 38 5
271.000000 -288.000000 65035.000000 42 40 5
272.000000 -288.000000 65035.000000 42 43 5
273.000000 -288.000000 65035.000000 42 46 3
274.000000 -288.000000 65035.000000 40 51 1
275.000000 -288.000000 65035.000000 39 51 1
276.000000 -288.000000 65035.000000 28 52 1
277.000000 -288.000000 65036.000000 17 59 1
278.000000 -288.000000 65036.000000 26 60 1
279.000000 -288.000000 65036.000000 36 67 6
280.000000 -288.000000 65036.000000 42 71 12
281.000000 -288.000000 65035.000000 49 70 6
282.000000 -288.000000 65035.000000 46 69 1
283.000000 -288.000000 65035.000000 43 71 1
284.000000 -288.000000 65035.000000 52 73 1
285.000000 -288.000000 65035.000000 62 74 1
286.000000 -288.000000 65035.000000 57 76 1
287.000000 -288.000000 65035.000000 53 76 1
288.000000 -288.000000 65034.000000 53 76 1
289.000000 -288.000000 65033.000000 54 74 2
290.000000 -288.000000 65033.000000 60 74 3
291.000000 -288.000000 65032.000000 67 76 6
292.000000 -288.000000 65032.000000 70 79 9
293.000000 -288.000000 65032.000000 74 76 9
294.000000 -288.000000 65032.000000 69 69 9
295.000000 -288.000000 65032.000000 64 66 14
296.000000 -288.000000 65031.000000 67 63 19
297.000000 -288.000000 65030.000000 71 71 10
298.000000 -288.000000 65029.000000 79 77 2
299.000000 -288.000000 65028.000000 87 78 1
300.000000 -288.000000 65028.000000 78 73 1
301.000000 -288.000000 65027.000000 69 75 1
302.000000 -288.000000 65027.000000 63 78 1
303.000000 -288.000000 65026.000000 58 79 1
304.000000 -288.000000 65026.000000 59 77 1
305.000000 -288.000000 65026.000000 61 79 1
306.000000 -288.000000 65026.000000 58 82 2
307.000000 -288.000000 65026.000000 56 79 1
308.000000 -288.000000 65026.000000 53 77 1
309.000000 -288.000000 65026.000000 51 68 4
310.000000 -288.000000 65025.000000 55 60 7
311.000000 -288.000000 65025.000000 59 63 8
251.000000 -289.000000 65020.000000 48 52 4
252.000000 -289.000000 65020.000000 46 48 1
253.000000 -289.000000 65020.000000 44 45 1
254.000000 -289.000000 65021.000000 49 43 1
255.000000 -289.000000 65023.000000 54 41 1
256.000000 -289.000000 65023.000000 44 41 1
257.000000 -289.000000 65023.000000 35 42 1
258.000000 -289.000000 65024.000000 28 37 1
259.000000 -289.000000 65025.000000 21 43 1
260.000000 -289.000000 65026.000000 24 44 1
261.000000 -289.000000 65027.000000 27 44 1
262.000000 -289.000000 65028.000000 32 42 1
263.000000 -289.000000 65029.000000 37 41 1
264.000000 -289.000000 65031.000000 34 40 1
265.000000 -289.000000 65032.000000 32 40 1
266.000000 -289.000000 65032.000000 34 35 1
267.000000 -289.000000 65032.000000 37 29 1
268.000000 -289.000000 65033.000000 36 29 1
269.000000 -289.000000 65033.000000 36 34 5
270.000000 -289.000000 65034.000000 37 37 9
271.000000 -289.000000 65035.000000 38 41 9
272.000000 -289.000000 65035.000000 38 44 10
273.000000 -289.000000 65036.000000 38 47 5
274.000000 -289.000000 65037.000000 36 50 1
275.000000 -289.000000 65037.000000 34 50 1
276.000000 -289.000000 65036.000000 28 51 1
277.000000 -289.000000 65037.000000 22 59 1
278.000000 -289.000000 65036.000000 29 61 1
279.000000 -289.000000 65035.000000 36 68 1
280.000000 -289.000000 65036.000000 41 72 1
281.000000 -289.000000 65035.000000 47 73 1
282.000000 -289.000000 65035.000000 46 71 1
283.000000 -289.000000 65035.000000 46 69 1
284.000000 -289.000000 65035.000000 52 73 1
285.000000 -289.000000 65035.000000 58 73 1
286.000000 -289.000000 65035.000000 55 72 1
287.000000 -289.000000 65035.000000 52 72 1
288.000000 -289.000000 65034.000000 52 75 1
289.000000 -289.000000 65034.000000 52 74 1
290.000000 -289.000000 65033.000000 60 75 1
291.000000 -289.000000 65032.000000 67 76 7
292.000000 -289.000000 65032.000000 70 76 14
293.000000 -289.000000 65032.000000 73 76 15
294.000000 -289.000000 65032.000000 71 73 17
295.000000 -289.000000 65032.000000 70 71 21
296.000000 -289.000000 65030.000000 72 70 25
297.000000 -289.000000 65029.000000 74 69 13
298.000000 -289.000000 65029.000000 78 77 1
299.000000 -289.000000 65029.000000 82 79 1
300.000000 -289.000000 65028.000000 74 77 1
301.000000 -289.000000 65027.000000 66 76 1
302.000000 -289.000000 65026.000000 62 78 1
303.000000 -289.000000 65026.000000 59 79 1
304.000000 -289.000000 65026.000000 60 78 1
305.000000 -289.000000 65026.000000 61 80 1
306.000000 -289.000000 65026.000000 62 84 2
307.000000 -289.000000 65026.000000 63 87 2
308.000000 -289.000000 65025.000000 63 85 2
309.000000 -289.000000 65025.000000 62 84 1
310.000000 -289.000000 65025.000000 63 76 1
311.000000 -289.000000 65025.000000 63 68 1
251.000000 -290.000000 65020.000000 34 39 2
252.000000 -290.000000 65020.000000 38 36 1
253.000000 -290.000000 65020.000000 42 37 1
254.000000 -290.000000 65021.000000 51 39 1
255.000000 -290.000000 65022.000000 60 42 1
256.000000 -290.000000 65023.000000 46 35 1
257.000000 -290.000000 65024.000000 32 39 1
258.000000 -290.000000 65026.000000 23 37 1
259.000000 -290.000000 65026.000000 15 41 1
260.000000 -290.000000 65026.000000 18 44 1
261.000000 -290.000000 65027.000000 22 44 1
262.000000 -290.000000 65028.000000 28 44 1
263.000000 -290.000000 65031.000000 34 41 1
264.000000 -290.000000 65032.000000 32 34 1
265.000000 -290.000000 65032.000000 30 32 1
266.000000 -290.000000 65032.000000 30 31 1
267.000000 -290.000000 65032.000000 30 30 1
268.000000 -290.000000 65033.000000 31 30 1
269.000000 -290.000000 65033.000000 32 33 5
270.000000 -290.000000 65035.000000 33 36 9
271.000000 -290.000000 65035.000000 35 43 13
272.000000 -290.000000 65036.000000 35 46 18
273.000000 -290.000000 65036.000000 35 46 9
274.000000 -290.000000 65037.000000 32 49 1
275.000000 -290.000000 65037.000000 30 50 1
276.000000 -290.000000 65037.000000 28 51 1
277.000000 -290.000000 65037.000000 27 56 1
278.000000 -290.000000 65037.000000 31 62 1
279.000000 -290.000000 65036.000000 36 66 1
280.000000 -290.000000 65036.000000 41 73 1
281.000000 -290.000000 65035.000000 46 73 1
282.000000 -290.000000 65035.000000 47 77 1
283.000000 -290.000000 65035.000000 49 75 1
284.000000 -290.000000 65035.000000 52 73 1
285.000000 -290.000000 65035.000000 55 72 1
286.000000 -290.000000 65035.000000 53 71 1
287.000000 -290.000000 65035.000000 52 73 1
288.000000 -290.000000 65035.000000 51 75 1
289.000000 -290.000000 65034.000000 51 75 1
290.000000 -290.000000 65033.000000 59 76 1
291.000000 -290.000000 65032.000000 68 76 4
292.000000 -290.000000 65032.000000 70 78 7
293.000000 -290.000000 65032.000000 72 77 10
294.000000 -290.000000 65032.000000 74 77 12
295.000000 -290.000000 65031.000000 76 75 24
296.000000 -290.000000 65030.000000 76 74 37
297.000000 -290.000000 65029.000000 77 75 20
298.000000 -290.000000 65029.000000 77 77 4
299.000000 -290.000000 65029.000000 77 78 2
300.000000 -290.000000 65028.000000 70 78 1
301.000000 -290.000000 65027.000000 64 78 1
302.000000 -290.000000 65027.000000 62 78 1
303.000000 -290.000000 65026.000000 60 77 1
304.000000 -290.000000 65026.000000 61 76 1
305.000000 -290.000000 65026.000000 62 82 13
306.000000 -290.000000 65026.000000 66 86 26
307.000000 -290.000000 65026.000000 71 91 14
308.000000 -290.000000 65026.000000 72 97 2
309.000000 -290.000000 65025.000000 74 91 1
310.000000 -290.000000 65025.000000 71 77 1
311.000000 -290.000000 65025.000000 68 76 2
251.000000 -291.000000 65020.000000 42 37 1
252.000000 -291.000000 65020.000000 42 36 1
253.000000 -291.000000 65020.000000 43 35 1
254.000000 -291.000000 65021.000000 47 41 1
255.000000 -291.000000 65023.000000 52 43 1
256.000000 -291.000000 65023.000000 44 43 1
257.000000 -291.000000 65025.000000 36 44 1
258.000000 -291.000000 65026.000000 27 42 1
259.000000 -291.000000 65026.000000 18 40 1
260.000000 -291.000000 65026.000000 21 45 1
261.000000 -291.000000 65028.000000 23 45 1
262.000000 -291.000000 65029.000000 28 45 1
263.000000 -291.000000 65030.000000 33 42 1
264.000000 -291.000000 65032.000000 30 32 1
265.000000 -291.000000 65032.000000 27 25 1
266.000000 -291.000000 65032.000000 24 26 1
267.000000 -291.000000 65032.000000 22 27 1
268.000000 -291.000000 65033.000000 25 28 1
269.000000 -291.000000 65034.000000 28 33 5
270.000000 -291.000000 65035.000000 30 37 9
271.000000 -291.000000 65035.000000 33 45 17
272.000000 -291.000000 65036.000000 34 45 26
273.000000 -291.000000 65037.000000 36 45 13
274.000000 -291.000000 65037.000000 32 47 1
275.000000 -291.000000 65037.000000 28 50 1
276.000000 -291.000000 65037.000000 24 52 1
277.000000 -291.000000 65037.000000 20 54 1
278.000000 -291.000000 65037.000000 28 60 1
279.000000 -291.000000 65037.000000 35 64 1
280.000000 -291.000000 65036.000000 39 72 1
281.000000 -291.000000 65035.000000 44 73 1
282.000000 -291.000000 65035.000000 45 74 1
283.000000 -291.000000 65035.000000 47 76 1
284.000000 -291.000000 65035.000000 49 76 1
285.000000 -291.000000 65035.000000 52 76 1
286.000000 -291.000000 65035.000000 52 75 1
287.000000 -291.000000 65035.000000 53 75 1
288.000000 -291.000000 65035.000000 53 73 1
289.000000 -291.000000 65034.000000 54 71 1
290.000000 -291.000000 65033.000000 60 75 1
291.000000 -291.000000 65032.000000 66 76 1
292.000000 -291.000000 65032.000000 68 78 1
293.000000 -291.000000 65032.000000 70 79 4
294.000000 -291.000000 65032.000000 74 76 8
295.000000 -291.000000 65032.000000 78 77 28
296.000000 -291.000000 65030.000000 77 75 49
297.000000 -291.000000 65029.000000 76 74 28
298.000000 -291.000000 65029.000000 75 77 7
299.000000 -291.000000 65029.000000 73 78 4
300.000000 -291.000000 65028.000000 68 78 2
301.000000 -291.000000 65028.000000 63 78 1
302.000000 -291.000000 65027.000000 60 77 1
303.000000 -291.000000 65027.000000 58 76 1
304.000000 -291.000000 65026.000000 57 78 1
305.000000 -291.000000 65026.000000 56 84 25
306.000000 -291.000000 65026.000000 64 89 50
307.000000 -291.000000 65025.000000 72 95 26
308.000000 -291.000000 65025.000000 75 96 3
309.000000 -291.000000 65025.000000 78 98 2
310.000000 -291.000000 65023.000000 73 78 1
311.000000 -291.000000 65023.000000 69 74 3
312.000000 -291.000000 65023.000000 72 76 6
251.000000 -292.000000 65020.000000 51 47 1
252.000000 -292.000000 65020.000000 47 45 1
255.000000 -292.000000 65023.000000 45 46 1
256.000000 -292.000000 65023.000000 42 46 1
257.000000 -292.000000 65025.000000 40 45 1
258.000000 -292.000000 65026.000000 31 44 1
259.000000 -292.000000 65026.000000 22 45 1
260.000000 -292.000000 65027.000000 23 46 1
261.000000 -292.000000 65028.000000 25 45 1
262.000000 -292.000000 65029.000000 29 46 1
263.000000 -292.000000 65030.000000 33 39 1
264.000000 -292.000000 65032.000000 28 30 1
265.000000 -292.000000 65032.000000 24 27 1
266.000000 -292.000000 65032.000000 19 21 1
267.000000 -292.000000 65032.000000 14 27 1
268.000000 -292.000000 65033.000000 19 26 1
269.000000 -292.000000 65034.000000 24 37 3
270.000000 -292.000000 65035.000000 28 39 5
271.000000 -292.000000 65036.000000 32 43 9
272.000000 -292.000000 65037.000000 34 43 13
273.000000 -292.000000 65037.000000 37 44 7
274.000000 -292.000000 65037.000000 31 46 1
275.000000 -292.000000 65038.000000 26 46 1
276.000000 -292.000000 65038.000000 20 46 1
277.000000 -292.000000 65038.000000 14 53 1
278.000000 -292.000000 65038.000000 24 58 1
279.000000 -292.000000 65037.000000 35 66 6
280.000000 -292.000000 65036.000000 38 72 11
281.000000 -292.000000 65036.000000 42 73 6
282.000000 -292.000000 65035.000000 44 67 1
283.000000 -292.000000 65035.000000 46 74 1
284.000000 -292.000000 65035.000000 47 75 1
285.000000 -292.000000 65035.000000 49 75 1
286.000000 -292.000000 65035.000000 52 75 1
287.000000 -292.000000 65035.000000 55 75 1
288.000000 -292.000000 65035.000000 56 71 1
289.000000 -292.000000 65034.000000 57 70 1
290.000000 -292.000000 65033.000000 60 75 1
291.000000 -292.000000 65032.000000 64 76 1
292.000000 -292.000000 65032.000000 66 78 1
293.000000 -292.000000 65032.000000 68 77 2
294.000000 -292.000000 65032.000000 74 76 4
295.000000 -292.000000 65031.000000 81 76 15
296.000000 -292.000000 65030.000000 78 79 25
297.000000 -292.000000 65029.000000 76 78 14
298.000000 -292.000000 65029.000000 73 78 4
299.000000 -292.000000 65029.000000 70 78 2
300.000000 -292.000000 65029.000000 66 79 1
301.000000 -292.000000 65028.000000 63 78 1
302.000000 -292.000000 65028.000000 59 77 1
303.000000 -292.000000 65027.000000 56 76 1
304.000000 -292.000000 65026.000000 53 80 1
305.000000 -292.000000 65026.000000 50 83 13
306.000000 -292.000000 65025.000000 61 93 25
307.000000 -292.000000 65025.000000 73 92 13
308.000000 -292.000000 65025.000000 78 91 2
309.000000 -292.000000 65025.000000 83 85 1
310.000000 -292.000000 65023.000000 76 79 1
311.000000 -292.000000 65023.000000 70 80 2
312.000000 -292.000000 65023.000000 73 81 3
255.000000 -293.000000 65023.000000 46 53 1
256.000000 -293.000000 65024.000000 47 50 1
257.000000 -293.000000 65025.000000 49 47 1
258.000000 -293.000000 65026.000000 37 48 1
259.000000 -293.000000 65026.000000 25 50 1
260.000000 -293.000000 65026.000000 26 45 1
261.000000 -293.000000 65029.000000 27 45 1
262.000000 -293.000000 65029.000000 30 46 1
263.000000 -293.000000 65030.000000 33 37 1
264.000000 -293.000000 65032.000000 33 35 1
265.000000 -293.000000 65032.000000 33 34 1
266.000000 -293.000000 65032.000000 26 30 1
267.000000 -293.000000 65032.000000 20 27 1
268.000000 -293.000000 65033.000000 23 32 1
269.000000 -293.000000 65035.000000 26 41 1
270.000000 -293.000000 65036.000000 29 41 1
271.000000 -293.000000 65037.000000 33 42 1
272.000000 -293.000000 65037.000000 35 44 1
273.000000 -293.000000 65037.000000 37 50 1
274.000000 -293.000000 65037.000000 33 49 1
275.000000 -293.000000 65038.000000 30 49 1
276.000000 -293.000000 65038.000000 25 45 1
277.000000 -293.000000 65038.000000 20 53 1
278.000000 -293.000000 65038.000000 27 56 1
279.000000 -293.000000 65038.000000 35 69 11
280.000000 -293.000000 65037.000000 40 71 21
281.000000 -293.000000 65036.000000 45 74 11
282.000000 -293.000000 65036.000000 45 73 1
283.000000 -293.000000 65036.000000 46 73 1
284.000000 -293.000000 65036.000000 47 73 1
285.000000 -293.000000 65035.000000 49 74 1
286.000000 -293.000000 65035.000000 51 74 1
287.000000 -293.000000 65035.000000 52 76 1
288.000000 -293.000000 65035.000000 54 73 1
289.000000 -293.000000 65035.000000 55 70 1
290.000000 -293.000000 65033.000000 58 75 1
291.000000 -293.000000 65032.000000 61 77 1
292.000000 -293.000000 65032.000000 62 77 1
293.000000 -293.000000 65032.000000 63 77 1
294.000000 -293.000000 65032.000000 68 75 1
295.000000 -293.000000 65031.000000 73 74 1
296.000000 -293.000000 65030.000000 72 79 2
297.000000 -293.000000 65029.000000 72 77 1
298.000000 -293.000000 65029.000000 69 77 1
299.000000 -293.000000 65029.000000 67 77 1
300.000000 -293.000000 65029.000000 64 77 1
301.000000 -293.000000 65028.000000 61 78 1
302.000000 -293.000000 65028.000000 58 77 1
