ply
    format ascii 1.0
    element vertex 10992
    property float x
    property float y
    property float z
    property uchar red
    property uchar green
    property uchar blue
    end_header
266.000000 -326.000000 65038.000000 39 40 1
267.000000 -326.000000 65039.000000 38 47 4
268.000000 -326.000000 65040.000000 33 46 7
269.000000 -326.000000 65040.000000 29 45 4
270.000000 -326.000000 65040.000000 32 44 1
271.000000 -326.000000 65040.000000 35 46 1
272.000000 -326.000000 65040.000000 35 48 1
273.000000 -326.000000 65041.000000 35 48 1
274.000000 -326.000000 65042.000000 31 47 1
275.000000 -326.000000 65041.000000 27 40 1
276.000000 -326.000000 65041.000000 14 10 1
277.000000 -326.000000 65041.000000 1 11 1
278.000000 -326.000000 65041.000000 8 12 1
279.000000 -326.000000 65041.000000 16 15 10
280.000000 -326.000000 65041.000000 18 18 20
287.000000 -326.000000 65040.000000 64 73 18
288.000000 -326.000000 65040.000000 65 79 32
289.000000 -326.000000 65040.000000 67 71 23
290.000000 -326.000000 65036.000000 48 49 15
291.000000 -326.000000 65036.000000 29 53 19
292.000000 -326.000000 65035.000000 42 58 24
293.000000 -326.000000 65035.000000 56 52 12
294.000000 -326.000000 65035.000000 36 46 1
295.000000 -326.000000 65035.000000 17 46 3
296.000000 -326.000000 65034.000000 32 46 6
297.000000 -326.000000 65033.000000 47 50 11
298.000000 -326.000000 65032.000000 52 54 15
299.000000 -326.000000 65032.000000 58 56 8
300.000000 -326.000000 65031.000000 58 59 1
301.000000 -326.000000 65031.000000 59 54 1
302.000000 -326.000000 65031.000000 56 46 1
303.000000 -326.000000 65031.000000 54 40 5
304.000000 -326.000000 65030.000000 51 34 10
305.000000 -326.000000 65029.000000 48 39 21
306.000000 -326.000000 65028.000000 46 45 32
307.000000 -326.000000 65028.000000 44 44 17
308.000000 -326.000000 65028.000000 48 43 3
309.000000 -326.000000 65026.000000 53 53 2
310.000000 -326.000000 65026.000000 57 79 1
311.000000 -326.000000 65025.000000 62 81 3
312.000000 -326.000000 65025.000000 68 76 5
313.000000 -326.000000 65022.000000 74 74 11
314.000000 -326.000000 65020.000000 76 73 17
315.000000 -326.000000 65020.000000 79 71 21
247.000000 -327.000000 65025.000000 64 64 20
248.000000 -327.000000 65025.000000 52 41 1
249.000000 -327.000000 65026.000000 39 25 1
250.000000 -327.000000 65026.000000 28 27 1
251.000000 -327.000000 65029.000000 18 27 1
252.000000 -327.000000 65032.000000 21 29 1
253.000000 -327.000000 65033.000000 24 35 1
254.000000 -327.000000 65035.000000 26 38 1
255.000000 -327.000000 65035.000000 28 43 1
256.000000 -327.000000 65035.000000 33 38 1
257.000000 -327.000000 65035.000000 38 34 1
258.000000 -327.000000 65035.000000 32 31 1
259.000000 -327.000000 65035.000000 26 29 1
260.000000 -327.000000 65036.000000 28 35 1
261.000000 -327.000000 65036.000000 31 35 1
262.000000 -327.000000 65037.000000 33 41 1
263.000000 -327.000000 65038.000000 36 42 7
264.000000 -327.000000 65038.000000 37 42 14
265.000000 -327.000000 65039.000000 39 40 7
266.000000 -327.000000 65039.000000 38 43 1
267.000000 -327.000000 65040.000000 38 47 1
268.000000 -327.000000 65040.000000 35 46 1
269.000000 -327.000000 65040.000000 32 44 1
270.000000 -327.000000 65040.000000 33 46 1
271.000000 -327.000000 65041.000000 35 49 1
272.000000 -327.000000 65041.000000 35 49 1
273.000000 -327.000000 65042.000000 35 50 1
274.000000 -327.000000 65041.000000 33 45 1
275.000000 -327.000000 65041.000000 31 42 1
276.000000 -327.000000 65041.000000 21 22 1
277.000000 -327.000000 65041.000000 11 14 1
278.000000 -327.000000 65042.000000 14 15 1
279.000000 -327.000000 65042.000000 18 17 1
287.000000 -327.000000 65040.000000 64 76 34
288.000000 -327.000000 65040.000000 68 77 61
289.000000 -327.000000 65040.000000 72 79 43
290.000000 -327.000000 65040.000000 59 63 26
291.000000 -327.000000 65036.000000 46 47 13
292.000000 -327.000000 65035.000000 50 50 1
293.000000 -327.000000 65035.000000 53 53 1
294.000000 -327.000000 65035.000000 51 52 1
295.000000 -327.000000 65035.000000 49 36 5
296.000000 -327.000000 65035.000000 57 45 10
297.000000 -327.000000 65034.000000 66 55 5
298.000000 -327.000000 65033.000000 64 50 1
299.000000 -327.000000 65032.000000 62 34 1
300.000000 -327.000000 65032.000000 62 54 1
301.000000 -327.000000 65031.000000 63 50 1
302.000000 -327.000000 65031.000000 63 55 1
303.000000 -327.000000 65031.000000 63 60 5
304.000000 -327.000000 65030.000000 60 47 10
305.000000 -327.000000 65029.000000 58 34 10
306.000000 -327.000000 65028.000000 56 34 10
307.000000 -327.000000 65028.000000 53 34 5
308.000000 -327.000000 65028.000000 56 46 1
309.000000 -327.000000 65027.000000 58 58 1
310.000000 -327.000000 65026.000000 61 80 1
311.000000 -327.000000 65025.000000 64 81 2
312.000000 -327.000000 65025.000000 69 75 4
313.000000 -327.000000 65022.000000 74 73 12
314.000000 -327.000000 65020.000000 77 73 21
315.000000 -327.000000 65020.000000 80 69 25
247.000000 -328.000000 65025.000000 64 48 10
248.000000 -328.000000 65025.000000 50 33 1
249.000000 -328.000000 65025.000000 37 30 1
250.000000 -328.000000 65029.000000 25 27 1
251.000000 -328.000000 65029.000000 14 28 1
252.000000 -328.000000 65031.000000 19 30 1
253.000000 -328.000000 65033.000000 24 37 1
254.000000 -328.000000 65035.000000 28 41 1
255.000000 -328.000000 65035.000000 32 42 1
256.000000 -328.000000 65035.000000 39 42 1
257.000000 -328.000000 65035.000000 46 40 1
258.000000 -328.000000 65035.000000 37 39 1
259.000000 -328.000000 65035.000000 29 38 3
260.000000 -328.000000 65036.000000 31 38 6
261.000000 -328.000000 65037.000000 34 39 3
262.000000 -328.000000 65038.000000 36 41 1
263.000000 -328.000000 65038.000000 38 42 4
264.000000 -328.000000 65038.000000 37 44 7
265.000000 -328.000000 65039.000000 37 45 4
266.000000 -328.000000 65039.000000 38 46 1
267.000000 -328.000000 65039.000000 39 46 1
268.000000 -328.000000 65040.000000 37 46 1
269.000000 -328.000000 65040.000000 35 44 1
270.000000 -328.000000 65041.000000 35 50 1
271.000000 -328.000000 65041.000000 36 50 1
272.000000 -328.000000 65041.000000 36 50 1
273.000000 -328.000000 65042.000000 36 47 8
274.000000 -328.000000 65043.000000 35 44 16
275.000000 -328.000000 65041.000000 35 40 9
276.000000 -328.000000 65042.000000 28 34 1
277.000000 -328.000000 65042.000000 21 28 1
278.000000 -328.000000 65042.000000 21 23 1
279.000000 -328.000000 65042.000000 21 24 1
287.000000 -328.000000 65040.000000 65 77 21
288.000000 -328.000000 65040.000000 71 91 32
289.000000 -328.000000 65040.000000 77 85 23
290.000000 -328.000000 65040.000000 70 77 14
291.000000 -328.000000 65037.000000 64 62 7
292.000000 -328.000000 65037.000000 57 37 1
293.000000 -328.000000 65036.000000 51 56 1
294.000000 -328.000000 65035.000000 66 59 1
295.000000 -328.000000 65035.000000 81 72 18
296.000000 -328.000000 65035.000000 83 86 35
297.000000 -328.000000 65034.000000 85 71 18
298.000000 -328.000000 65033.000000 75 46 1
299.000000 -328.000000 65032.000000 66 47 1
300.000000 -328.000000 65032.000000 66 49 1
301.000000 -328.000000 65031.000000 67 57 4
302.000000 -328.000000 65031.000000 69 65 7
303.000000 -328.000000 65031.000000 72 62 6
304.000000 -328.000000 65030.000000 70 60 6
305.000000 -328.000000 65029.000000 69 63 15
306.000000 -328.000000 65029.000000 66 67 24
307.000000 -328.000000 65028.000000 63 68 12
308.000000 -328.000000 65028.000000 63 69 1
309.000000 -328.000000 65027.000000 64 75 1
310.000000 -328.000000 65026.000000 65 81 1
311.000000 -328.000000 65025.000000 67 79 2
312.000000 -328.000000 65024.000000 70 74 3
313.000000 -328.000000 65024.000000 74 74 18
314.000000 -328.000000 65021.000000 78 74 34
315.000000 -328.000000 65021.000000 82 68 29
247.000000 -329.000000 65025.000000 60 43 1
248.000000 -329.000000 65026.000000 49 33 1
249.000000 -329.000000 65026.000000 38 32 1
250.000000 -329.000000 65029.000000 30 31 1
251.000000 -329.000000 65029.000000 22 30 1
252.000000 -329.000000 65031.000000 24 34 1
253.000000 -329.000000 65033.000000 26 39 1
254.000000 -329.000000 65035.000000 30 40 1
255.000000 -329.000000 65035.000000 35 42 1
256.000000 -329.000000 65035.000000 38 44 1
257.000000 -329.000000 65035.000000 42 46 1
258.000000 -329.000000 65035.000000 37 46 1
259.000000 -329.000000 65036.000000 33 47 6
260.000000 -329.000000 65036.000000 34 44 12
261.000000 -329.000000 65037.000000 35 42 6
262.000000 -329.000000 65038.000000 37 44 1
263.000000 -329.000000 65038.000000 39 47 1
264.000000 -329.000000 65038.000000 38 46 1
265.000000 -329.000000 65038.000000 38 46 1
266.000000 -329.000000 65039.000000 38 45 1
267.000000 -329.000000 65039.000000 39 45 1
268.000000 -329.000000 65040.000000 38 45 1
269.000000 -329.000000 65040.000000 36 45 1
270.000000 -329.000000 65041.000000 39 45 2
271.000000 -329.000000 65041.000000 41 45 1
272.000000 -329.000000 65042.000000 39 43 1
273.000000 -329.000000 65042.000000 37 41 16
274.000000 -329.000000 65043.000000 39 39 32
275.000000 -329.000000 65042.000000 42 38 17
276.000000 -329.000000 65042.000000 36 38 2
277.000000 -329.000000 65042.000000 30 39 1
278.000000 -329.000000 65042.000000 30 25 1
287.000000 -329.000000 65040.000000 61 78 8
288.000000 -329.000000 65041.000000 68 84 3
289.000000 -329.000000 65041.000000 74 91 3
290.000000 -329.000000 65037.000000 73 77 3
291.000000 -329.000000 65037.000000 73 78 2
292.000000 -329.000000 65037.000000 70 69 1
293.000000 -329.000000 65036.000000 68 60 1
294.000000 -329.000000 65035.000000 76 68 1
295.000000 -329.000000 65035.000000 85 87 30
296.000000 -329.000000 65035.000000 85 87 60
297.000000 -329.000000 65035.000000 86 88 30
298.000000 -329.000000 65033.000000 80 86 1
299.000000 -329.000000 65032.000000 74 85 1
300.000000 -329.000000 65032.000000 74 86 2
301.000000 -329.000000 65032.000000 75 87 8
302.000000 -329.000000 65031.000000 76 87 14
303.000000 -329.000000 65031.000000 78 87 8
304.000000 -329.000000 65030.000000 77 92 2
305.000000 -329.000000 65029.000000 76 97 20
306.000000 -329.000000 65029.000000 73 71 38
307.000000 -329.000000 65028.000000 70 78 19
308.000000 -329.000000 65028.000000 68 74 1
309.000000 -329.000000 65027.000000 67 79 1
310.000000 -329.000000 65026.000000 66 78 1
311.000000 -329.000000 65026.000000 65 78 1
312.000000 -329.000000 65024.000000 70 75 2
313.000000 -329.000000 65022.000000 74 69 24
314.000000 -329.000000 65022.000000 80 68 47
315.000000 -329.000000 65021.000000 86 67 33
247.000000 -330.000000 65025.000000 57 41 1
248.000000 -330.000000 65026.000000 48 33 1
249.000000 -330.000000 65026.000000 40 33 1
250.000000 -330.000000 65026.000000 35 34 1
251.000000 -330.000000 65029.000000 31 37 1
252.000000 -330.000000 65030.000000 30 41 1
253.000000 -330.000000 65033.000000 29 37 1
254.000000 -330.000000 65035.000000 33 46 1
255.000000 -330.000000 65035.000000 38 47 1
256.000000 -330.000000 65035.000000 38 49 1
257.000000 -330.000000 65035.000000 39 50 1
258.000000 -330.000000 65035.000000 38 52 1
259.000000 -330.000000 65035.000000 37 51 3
260.000000 -330.000000 65036.000000 36 50 6
261.000000 -330.000000 65037.000000 36 48 3
262.000000 -330.000000 65038.000000 38 47 1
263.000000 -330.000000 65038.000000 41 46 1
264.000000 -330.000000 65038.000000 40 46 1
265.000000 -330.000000 65038.000000 39 45 1
266.000000 -330.000000 65038.000000 39 45 1
267.000000 -330.000000 65038.000000 40 42 1
268.000000 -330.000000 65040.000000 39 39 1
269.000000 -330.000000 65040.000000 38 39 1
270.000000 -330.000000 65041.000000 42 40 1
271.000000 -330.000000 65041.000000 47 40 1
272.000000 -330.000000 65041.000000 42 41 1
273.000000 -330.000000 65042.000000 38 36 8
274.000000 -330.000000 65043.000000 43 32 16
275.000000 -330.000000 65043.000000 49 34 9
276.000000 -330.000000 65043.000000 44 37 1
277.000000 -330.000000 65043.000000 39 32 1
278.000000 -330.000000 65043.000000 40 28 1
288.000000 -330.000000 65041.000000 65 60 2
289.000000 -330.000000 65041.000000 72 68 2
290.000000 -330.000000 65037.000000 77 77 2
291.000000 -330.000000 65037.000000 82 73 1
292.000000 -330.000000 65037.000000 84 70 1
293.000000 -330.000000 65036.000000 86 62 1
294.000000 -330.000000 65035.000000 87 77 1
295.000000 -330.000000 65035.000000 89 80 15
296.000000 -330.000000 65035.000000 88 83 30
297.000000 -330.000000 65035.000000 87 83 15
298.000000 -330.000000 65034.000000 84 83 1
299.000000 -330.000000 65034.000000 82 83 1
300.000000 -330.000000 65032.000000 82 84 1
301.000000 -330.000000 65032.000000 83 83 4
302.000000 -330.000000 65032.000000 83 82 7
303.000000 -330.000000 65032.000000 84 79 4
304.000000 -330.000000 65030.000000 84 77 1
305.000000 -330.000000 65029.000000 84 76 10
306.000000 -330.000000 65029.000000 81 76 19
307.000000 -330.000000 65028.000000 78 73 10
308.000000 -330.000000 65028.000000 74 70 1
309.000000 -330.000000 65027.000000 70 74 2
310.000000 -330.000000 65026.000000 67 78 3
311.000000 -330.000000 65026.000000 64 77 2
312.000000 -330.000000 65023.000000 69 77 1
313.000000 -330.000000 65022.000000 75 70 17
314.000000 -330.000000 65022.000000 82 63 34
247.000000 -331.000000 65025.000000 58 63 1
248.000000 -331.000000 65026.000000 48 39 1
249.000000 -331.000000 65026.000000 39 39 1
250.000000 -331.000000 65030.000000 34 38 1
251.000000 -331.000000 65030.000000 30 42 1
252.000000 -331.000000 65030.000000 31 42 1
253.000000 -331.000000 65033.000000 31 36 1
254.000000 -331.000000 65035.000000 32 45 1
255.000000 -331.000000 65035.000000 34 50 1
256.000000 -331.000000 65035.000000 35 50 1
257.000000 -331.000000 65035.000000 36 52 1
258.000000 -331.000000 65035.000000 36 52 1
259.000000 -331.000000 65036.000000 37 53 1
260.000000 -331.000000 65037.000000 36 50 1
261.000000 -331.000000 65038.000000 35 47 1
262.000000 -331.000000 65038.000000 39 46 1
263.000000 -331.000000 65038.000000 44 45 1
264.000000 -331.000000 65038.000000 41 40 1
265.000000 -331.000000 65039.000000 38 36 1
266.000000 -331.000000 65039.000000 39 32 1
267.000000 -331.000000 65039.000000 40 29 1
268.000000 -331.000000 65040.000000 36 29 1
269.000000 -331.000000 65040.000000 32 30 1
270.000000 -331.000000 65041.000000 35 33 1
271.000000 -331.000000 65041.000000 37 36 1
272.000000 -331.000000 65041.000000 36 39 1
273.000000 -331.000000 65042.000000 34 30 1
274.000000 -331.000000 65043.000000 37 29 1
275.000000 -331.000000 65043.000000 40 28 1
276.000000 -331.000000 65043.000000 36 17 1
277.000000 -331.000000 65042.000000 33 7 1
278.000000 -331.000000 65042.000000 36 6 1
287.000000 -331.000000 65042.000000 57 39 2
288.000000 -331.000000 65042.000000 65 44 1
289.000000 -331.000000 65041.000000 72 49 1
290.000000 -331.000000 65041.000000 76 51 1
291.000000 -331.000000 65037.000000 80 53 1
292.000000 -331.000000 65037.000000 82 59 1
293.000000 -331.000000 65036.000000 85 65 1
294.000000 -331.000000 65037.000000 85 64 1
295.000000 -331.000000 65037.000000 86 64 1
296.000000 -331.000000 65037.000000 86 68 1
297.000000 -331.000000 65035.000000 87 73 1
298.000000 -331.000000 65035.000000 84 68 1
299.000000 -331.000000 65035.000000 81 64 1
300.000000 -331.000000 65034.000000 82 65 1
301.000000 -331.000000 65034.000000 84 66 1
302.000000 -331.000000 65034.000000 84 64 1
303.000000 -331.000000 65032.000000 84 63 1
304.000000 -331.000000 65031.000000 83 58 1
305.000000 -331.000000 65031.000000 83 53 1
306.000000 -331.000000 65029.000000 80 50 1
307.000000 -331.000000 65029.000000 78 47 1
308.000000 -331.000000 65028.000000 73 51 1
309.000000 -331.000000 65028.000000 68 55 3
310.000000 -331.000000 65027.000000 66 64 5
311.000000 -331.000000 65026.000000 64 74 3
312.000000 -331.000000 65026.000000 69 78 1
313.000000 -331.000000 65022.000000 74 71 11
314.000000 -331.000000 65021.000000 79 67 21
315.000000 -331.000000 65021.000000 84 64 16
247.000000 -332.000000 65025.000000 59 59 1
248.000000 -332.000000 65026.000000 48 45 1
249.000000 -332.000000 65026.000000 38 37 1
250.000000 -332.000000 65027.000000 34 37 1
251.000000 -332.000000 65029.000000 30 41 1
252.000000 -332.000000 65030.000000 32 44 1
253.000000 -332.000000 65032.000000 34 44 1
254.000000 -332.000000 65034.000000 32 45 1
255.000000 -332.000000 65035.000000 30 49 1
256.000000 -332.000000 65035.000000 32 51 1
257.000000 -332.000000 65035.000000 34 53 1
258.000000 -332.000000 65035.000000 35 56 1
259.000000 -332.000000 65035.000000 37 53 1
260.000000 -332.000000 65037.000000 35 50 1
261.000000 -332.000000 65038.000000 34 47 3
262.000000 -332.000000 65038.000000 40 45 5
263.000000 -332.000000 65038.000000 47 39 3
264.000000 -332.000000 65038.000000 42 31 1
265.000000 -332.000000 65040.000000 38 30 1
266.000000 -332.000000 65040.000000 39 30 1
267.000000 -332.000000 65040.000000 40 28 1
268.000000 -332.000000 65040.000000 33 26 1
269.000000 -332.000000 65041.000000 27 28 1
270.000000 -332.000000 65041.000000 27 30 1
271.000000 -332.000000 65041.000000 28 33 1
272.000000 -332.000000 65042.000000 29 37 1
273.000000 -332.000000 65042.000000 31 30 1
274.000000 -332.000000 65043.000000 31 29 1
275.000000 -332.000000 65043.000000 32 20 1
276.000000 -332.000000 65043.000000 29 3 1
277.000000 -332.000000 65041.000000 27 2 1
278.000000 -332.000000 65041.000000 32 2 1
284.000000 -332.000000 65043.000000 45 1 4
285.000000 -332.000000 65043.000000 48 2 3
286.000000 -332.000000 65043.000000 52 4 3
287.000000 -332.000000 65042.000000 57 15 2
288.000000 -332.000000 65042.000000 65 26 1
289.000000 -332.000000 65041.000000 73 16 1
290.000000 -332.000000 65040.000000 75 7 1
291.000000 -332.000000 65040.000000 78 14 1
292.000000 -332.000000 65038.000000 81 22 1
293.000000 -332.000000 65038.000000 84 19 1
294.000000 -332.000000 65037.000000 83 17 2
295.000000 -332.000000 65038.000000 83 21 7
296.000000 -332.000000 65037.000000 85 26 13
297.000000 -332.000000 65037.000000 87 19 10
298.000000 -332.000000 65036.000000 83 12 8
299.000000 -332.000000 65035.000000 80 9 9
300.000000 -332.000000 65034.000000 82 7 10
301.000000 -332.000000 65034.000000 85 5 6
302.000000 -332.000000 65032.000000 84 3 2
303.000000 -332.000000 65032.000000 84 5 1
304.000000 -332.000000 65031.000000 83 7 1
305.000000 -332.000000 65029.000000 82 16 1
306.000000 -332.000000 65029.000000 80 25 2
307.000000 -332.000000 65029.000000 79 36 1
308.000000 -332.000000 65028.000000 73 3 1
309.000000 -332.000000 65028.000000 67 26 2
310.000000 -332.000000 65027.000000 66 50 3
311.000000 -332.000000 65026.000000 65 75 2
312.000000 -332.000000 65025.000000 69 79 1
313.000000 -332.000000 65025.000000 74 74 6
314.000000 -332.000000 65021.000000 76 70 11
315.000000 -332.000000 65021.000000 79 69 11
247.000000 -333.000000 65025.000000 55 55 1
248.000000 -333.000000 65026.000000 44 43 1
249.000000 -333.000000 65026.000000 34 35 1
250.000000 -333.000000 65029.000000 28 34 1
251.000000 -333.000000 65031.000000 23 41 1
252.000000 -333.000000 65031.000000 30 43 1
253.000000 -333.000000 65032.000000 36 46 1
254.000000 -333.000000 65034.000000 32 47 1
255.000000 -333.000000 65035.000000 28 48 1
256.000000 -333.000000 65035.000000 29 52 1
257.000000 -333.000000 65035.000000 31 54 1
258.000000 -333.000000 65035.000000 33 53 1
259.000000 -333.000000 65036.000000 35 53 1
260.000000 -333.000000 65037.000000 34 46 1
261.000000 -333.000000 65037.000000 33 40 5
262.000000 -333.000000 65038.000000 36 39 10
263.000000 -333.000000 65037.000000 39 34 5
264.000000 -333.000000 65038.000000 37 30 1
265.000000 -333.000000 65038.000000 35 24 1
266.000000 -333.000000 65039.000000 39 24 1
267.000000 -333.000000 65039.000000 43 24 1
268.000000 -333.000000 65040.000000 35 25 1
269.000000 -333.000000 65041.000000 26 26 1
270.000000 -333.000000 65041.000000 24 27 1
271.000000 -333.000000 65041.000000 22 29 1
272.000000 -333.000000 65042.000000 25 30 1
273.000000 -333.000000 65043.000000 28 31 1
274.000000 -333.000000 65043.000000 29 26 1
275.000000 -333.000000 65043.000000 31 13 1
276.000000 -333.000000 65043.000000 30 3 1
277.000000 -333.000000 65043.000000 30 3 1
278.000000 -333.000000 65043.000000 36 4 1
279.000000 -333.000000 65043.000000 43 5 1
283.000000 -333.000000 65043.000000 46 1 5
284.000000 -333.000000 65043.000000 49 2 8
285.000000 -333.000000 65043.000000 52 4 5
286.000000 -333.000000 65042.000000 56 8 3
287.000000 -333.000000 65042.000000 59 12 2
288.000000 -333.000000 65042.000000 65 13 1
289.000000 -333.000000 65041.000000 72 14 1
290.000000 -333.000000 65040.000000 76 17 1
291.000000 -333.000000 65040.000000 80 21 1
292.000000 -333.000000 65038.000000 82 27 1
293.000000 -333.000000 65038.000000 85 34 2
294.000000 -333.000000 65038.000000 85 30 4
295.000000 -333.000000 65038.000000 86 27 14
296.000000 -333.000000 65038.000000 89 30 25
297.000000 -333.000000 65037.000000 93 33 20
298.000000 -333.000000 65037.000000 89 27 16
299.000000 -333.000000 65036.000000 86 21 17
300.000000 -333.000000 65035.000000 92 16 19
301.000000 -333.000000 65035.000000 98 12 11
302.000000 -333.000000 65034.000000 93 12 4
303.000000 -333.000000 65032.000000 88 13 2
304.000000 -333.000000 65031.000000 86 19 1
305.000000 -333.000000 65030.000000 85 26 2
306.000000 -333.000000 65029.000000 85 26 3
307.000000 -333.000000 65029.000000 85 26 2
308.000000 -333.000000 65029.000000 76 15 1
309.000000 -333.000000 65028.000000 68 4 1
310.000000 -333.000000 65027.000000 65 57 1
311.000000 -333.000000 65026.000000 62 76 1
312.000000 -333.000000 65026.000000 66 77 2
313.000000 -333.000000 65025.000000 69 78 2
250.000000 -334.000000 65029.000000 23 32 2
251.000000 -334.000000 65031.000000 17 34 1
252.000000 -334.000000 65031.000000 28 36 1
253.000000 -334.000000 65032.000000 39 44 1
254.000000 -334.000000 65033.000000 32 42 2
255.000000 -334.000000 65035.000000 26 50 1
256.000000 -334.000000 65035.000000 27 53 1
257.000000 -334.000000 65036.000000 29 52 1
258.000000 -334.000000 65036.000000 31 51 1
259.000000 -334.000000 65037.000000 34 48 1
260.000000 -334.000000 65037.000000 33 43 1
261.000000 -334.000000 65037.000000 33 38 3
262.000000 -334.000000 65038.000000 32 39 5
263.000000 -334.000000 65038.000000 31 30 3
264.000000 -334.000000 65039.000000 31 30 2
265.000000 -334.000000 65039.000000 32 24 2
266.000000 -334.000000 65040.000000 39 24 3
267.000000 -334.000000 65039.000000 47 24 2
268.000000 -334.000000 65041.000000 36 21 1
269.000000 -334.000000 65041.000000 26 23 1
270.000000 -334.000000 65041.000000 21 12 1
271.000000 -334.000000 65042.000000 17 20 1
272.000000 -334.000000 65043.000000 21 27 1
273.000000 -334.000000 65043.000000 26 30 1
274.000000 -334.000000 65043.000000 28 23 1
275.000000 -334.000000 65043.000000 30 12 1
276.000000 -334.000000 65042.000000 32 4 1
277.000000 -334.000000 65043.000000 34 3 1
278.000000 -334.000000 65043.000000 41 7 1
279.000000 -334.000000 65043.000000 49 8 12
283.000000 -334.000000 65043.000000 51 12 3
284.000000 -334.000000 65043.000000 54 14 4
285.000000 -334.000000 65043.000000 57 14 3
286.000000 -334.000000 65042.000000 59 14 2
287.000000 -334.000000 65043.000000 62 11 1
288.000000 -334.000000 65042.000000 66 18 1
289.000000 -334.000000 65041.000000 71 13 1
290.000000 -334.000000 65040.000000 76 25 1
291.000000 -334.000000 65040.000000 82 16 1
292.000000 -334.000000 65039.000000 84 39 1
293.000000 -334.000000 65038.000000 86 35 2
294.000000 -334.000000 65038.000000 87 42 3
295.000000 -334.000000 65038.000000 89 36 9
296.000000 -334.000000 65038.000000 94 45 16
297.000000 -334.000000 65037.000000 100 44 15
298.000000 -334.000000 65037.000000 96 43 15
299.000000 -334.000000 65036.000000 92 54 22
300.000000 -334.000000 65035.000000 102 65 29
301.000000 -334.000000 65035.000000 112 66 16
302.000000 -334.000000 65034.000000 102 67 4
303.000000 -334.000000 65033.000000 93 56 3
304.000000 -334.000000 65031.000000 90 45 3
305.000000 -334.000000 65029.000000 88 46 16
306.000000 -334.000000 65029.000000 89 48 28
307.000000 -334.000000 65029.000000 91 42 15
308.000000 -334.000000 65029.000000 80 36 2
309.000000 -334.000000 65028.000000 69 50 1
310.000000 -334.000000 65027.000000 64 65 1
311.000000 -334.000000 65026.000000 60 74 1
312.000000 -334.000000 65026.000000 62 77 2
313.000000 -334.000000 65026.000000 65 75 2
250.000000 -335.000000 65029.000000 25 29 4
251.000000 -335.000000 65031.000000 21 29 2
252.000000 -335.000000 65032.000000 26 37 1
253.000000 -335.000000 65032.000000 31 43 2
254.000000 -335.000000 65033.000000 29 46 4
255.000000 -335.000000 65034.000000 26 52 2
256.000000 -335.000000 65035.000000 27 52 1
257.000000 -335.000000 65036.000000 27 45 1
258.000000 -335.000000 65036.000000 28 45 1
259.000000 -335.000000 65037.000000 30 45 1
260.000000 -335.000000 65037.000000 30 43 1
261.000000 -335.000000 65038.000000 31 37 1
262.000000 -335.000000 65038.000000 29 35 1
263.000000 -335.000000 65038.000000 28 27 2
264.000000 -335.000000 65039.000000 28 26 3
265.000000 -335.000000 65040.000000 28 18 4
266.000000 -335.000000 65040.000000 33 27 6
267.000000 -335.000000 65040.000000 39 27 3
268.000000 -335.000000 65042.000000 31 23 1
269.000000 -335.000000 65042.000000 23 20 1
270.000000 -335.000000 65042.000000 20 12 1
271.000000 -335.000000 65043.000000 17 14 1
272.000000 -335.000000 65043.000000 22 28 1
273.000000 -335.000000 65043.000000 28 30 1
274.000000 -335.000000 65043.000000 29 24 1
275.000000 -335.000000 65043.000000 31 12 1
276.000000 -335.000000 65041.000000 30 4 1
277.000000 -335.000000 65043.000000 30 4 1
278.000000 -335.000000 65043.000000 36 5 1
279.000000 -335.000000 65043.000000 41 9 23
283.000000 -335.000000 65043.000000 47 27 1
284.000000 -335.000000 65043.000000 49 10 1
285.000000 -335.000000 65043.000000 51 8 1
286.000000 -335.000000 65042.000000 51 9 1
287.000000 -335.000000 65042.000000 52 10 1
288.000000 -335.000000 65042.000000 57 11 1
289.000000 -335.000000 65041.000000 62 12 1
290.000000 -335.000000 65041.000000 65 12 1
291.000000 -335.000000 65040.000000 68 12 1
292.000000 -335.000000 65039.000000 71 24 2
293.000000 -335.000000 65039.000000 73 36 2
294.000000 -335.000000 65038.000000 75 33 2
295.000000 -335.000000 65038.000000 76 30 4
296.000000 -335.000000 65038.000000 80 33 7
297.000000 -335.000000 65038.000000 84 37 11
298.000000 -335.000000 65037.000000 83 44 15
299.000000 -335.000000 65037.000000 82 51 27
300.000000 -335.000000 65036.000000 90 54 39
301.000000 -335.000000 65035.000000 98 58 21
302.000000 -335.000000 65035.000000 91 57 4
303.000000 -335.000000 65033.000000 84 57 5
304.000000 -335.000000 65031.000000 82 51 6
305.000000 -335.000000 65030.000000 79 46 30
306.000000 -335.000000 65029.000000 80 46 54
307.000000 -335.000000 65029.000000 81 47 28
308.000000 -335.000000 65029.000000 72 46 3
309.000000 -335.000000 65029.000000 63 46 2
310.000000 -335.000000 65028.000000 59 59 1
311.000000 -335.000000 65026.000000 55 73 2
312.000000 -335.000000 65026.000000 59 74 3
313.000000 -335.000000 65026.000000 64 66 2
250.000000 -336.000000 65029.000000 26 38 2
251.000000 -336.000000 65031.000000 26 29 1
252.000000 -336.000000 65032.000000 25 39 1
253.000000 -336.000000 65032.000000 24 38 1
254.000000 -336.000000 65034.000000 25 50 2
255.000000 -336.000000 65035.000000 27 51 1
256.000000 -336.000000 65035.000000 26 52 1
257.000000 -336.000000 65037.000000 26 45 1
258.000000 -336.000000 65037.000000 26 49 1
259.000000 -336.000000 65038.000000 26 46 1
260.000000 -336.000000 65038.000000 27 43 1
261.000000 -336.000000 65038.000000 29 35 1
262.000000 -336.000000 65038.000000 27 31 1
263.000000 -336.000000 65039.000000 25 27 1
264.000000 -336.000000 65040.000000 25 22 2
265.000000 -336.000000 65040.000000 25 22 15
266.000000 -336.000000 65041.000000 28 31 28
267.000000 -336.000000 65043.000000 31 26 14
268.000000 -336.000000 65043.000000 26 26 1
269.000000 -336.000000 65043.000000 21 19 1
270.000000 -336.000000 65043.000000 19 12 1
271.000000 -336.000000 65043.000000 17 14 1
272.000000 -336.000000 65043.000000 24 30 1
273.000000 -336.000000 65043.000000 31 27 6
274.000000 -336.000000 65042.000000 31 25 11
275.000000 -336.000000 65042.000000 32 15 6
276.000000 -336.000000 65041.000000 29 5 1
277.000000 -336.000000 65041.000000 27 4 1
278.000000 -336.000000 65041.000000 30 4 1
279.000000 -336.000000 65041.000000 34 4 12
280.000000 -336.000000 65041.000000 37 5 24
281.000000 -336.000000 65041.000000 41 7 12
282.000000 -336.000000 65041.000000 42 9 1
283.000000 -336.000000 65043.000000 44 8 1
284.000000 -336.000000 65043.000000 44 7 1
285.000000 -336.000000 65043.000000 45 7 1
286.000000 -336.000000 65042.000000 44 6 1
287.000000 -336.000000 65042.000000 43 11 1
288.000000 -336.000000 65042.000000 48 9 1
289.000000 -336.000000 65041.000000 54 13 1
290.000000 -336.000000 65041.000000 54 4 1
291.000000 -336.000000 65040.000000 55 4 1
292.000000 -336.000000 65040.000000 58 5 1
293.000000 -336.000000 65039.000000 61 3 2
294.000000 -336.000000 65039.000000 62 1 2
295.000000 -336.000000 65038.000000 64 1 3
296.000000 -336.000000 65038.000000 66 1 5
297.000000 -336.000000 65038.000000 68 7 6
298.000000 -336.000000 65037.000000 70 13 8
299.000000 -336.000000 65036.000000 72 8 14
300.000000 -336.000000 65036.000000 78 4 21
301.000000 -336.000000 65035.000000 85 3 11
302.000000 -336.000000 65035.000000 80 3 2
303.000000 -336.000000 65034.000000 76 8 3
304.000000 -336.000000 65032.000000 73 13 3
305.000000 -336.000000 65031.000000 71 11 16
306.000000 -336.000000 65029.000000 71 10 29
307.000000 -336.000000 65029.000000 72 13 15
308.000000 -336.000000 65029.000000 64 17 2
309.000000 -336.000000 65029.000000 57 41 1
310.000000 -336.000000 65028.000000 54 53 1
311.000000 -336.000000 65026.000000 51 69 3
312.000000 -336.000000 65026.000000 57 71 6
313.000000 -336.000000 65025.000000 63 66 4
314.000000 -336.000000 65025.000000 70 69 3
250.000000 -337.000000 65029.000000 19 29 1
251.000000 -337.000000 65031.000000 20 29 1
252.000000 -337.000000 65032.000000 20 31 1
253.000000 -337.000000 65033.000000 20 33 1
254.000000 -337.000000 65035.000000 23 39 1
255.000000 -337.000000 65035.000000 26 46 1
256.000000 -337.000000 65035.000000 26 45 1
257.000000 -337.000000 65037.000000 26 45 1
258.000000 -337.000000 65038.000000 25 41 1
259.000000 -337.000000 65038.000000 24 38 1
260.000000 -337.000000 65038.000000 24 36 1
261.000000 -337.000000 65038.000000 24 34 1
262.000000 -337.000000 65039.000000 22 30 1
263.000000 -337.000000 65040.000000 21 28 1
264.000000 -337.000000 65040.000000 19 27 1
265.000000 -337.000000 65041.000000 18 26 25
266.000000 -337.000000 65042.000000 23 26 50
267.000000 -337.000000 65043.000000 27 26 25
268.000000 -337.000000 65043.000000 24 25 1
269.000000 -337.000000 65043.000000 21 19 1
270.000000 -337.000000 65043.000000 20 17 1
271.000000 -337.000000 65043.000000 19 15 1
272.000000 -337.000000 65043.000000 22 18 1
273.000000 -337.000000 65043.000000 25 22 11
274.000000 -337.000000 65042.000000 26 25 21
275.000000 -337.000000 65042.000000 27 19 11
276.000000 -337.000000 65042.000000 25 12 1
277.000000 -337.000000 65041.000000 22 5 1
278.000000 -337.000000 65042.000000 25 6 1
279.000000 -337.000000 65042.000000 28 7 1
280.000000 -337.000000 65041.000000 31 8 2
281.000000 -337.000000 65041.000000 33 10 1
282.000000 -337.000000 65042.000000 36 9 1
283.000000 -337.000000 65042.000000 39 9 1
284.000000 -337.000000 65042.000000 37 9 1
285.000000 -337.000000 65042.000000 35 9 1
286.000000 -337.000000 65042.000000 31 10 1
287.000000 -337.000000 65042.000000 27 12 1
288.000000 -337.000000 65041.000000 35 13 1
289.000000 -337.000000 65041.000000 43 14 1
290.000000 -337.000000 65041.000000 44 10 1
291.000000 -337.000000 65040.000000 45 7 1
292.000000 -337.000000 65040.000000 48 6 1
293.000000 -337.000000 65040.000000 51 5 2
294.000000 -337.000000 65039.000000 52 4 3
295.000000 -337.000000 65039.000000 52 4 3
296.000000 -337.000000 65038.000000 53 6 3
297.000000 -337.000000 65038.000000 55 9 2
298.000000 -337.000000 65037.000000 56 10 2
299.000000 -337.000000 65036.000000 57 12 2
300.000000 -337.000000 65036.000000 56 8 3
301.000000 -337.000000 65035.000000 56 5 2
302.000000 -337.000000 65035.000000 57 7 1
303.000000 -337.000000 65034.000000 59 9 1
304.000000 -337.000000 65032.000000 58 10 1
305.000000 -337.000000 65031.000000 57 11 3
306.000000 -337.000000 65030.000000 57 16 5
307.000000 -337.000000 65029.000000 58 21 3
308.000000 -337.000000 65029.000000 51 29 1
309.000000 -337.000000 65029.000000 45 37 1
310.000000 -337.000000 65027.000000 45 51 1
311.000000 -337.000000 65026.000000 45 65 5
312.000000 -337.000000 65026.000000 52 66 9
313.000000 -337.000000 65025.000000 60 67 7
314.000000 -337.000000 65025.000000 68 67 5
250.000000 -338.000000 65029.000000 12 22 1
251.000000 -338.000000 65031.000000 15 23 1
252.000000 -338.000000 65032.000000 15 24 1
253.000000 -338.000000 65033.000000 16 32 1
254.000000 -338.000000 65034.000000 21 35 1
255.000000 -338.000000 65035.000000 26 37 1
256.000000 -338.000000 65036.000000 26 39 1
257.000000 -338.000000 65037.000000 26 38 1
258.000000 -338.000000 65037.000000 24 37 1
259.000000 -338.000000 65038.000000 22 36 1
260.000000 -338.000000 65038.000000 21 35 1
261.000000 -338.000000 65038.000000 20 34 1
262.000000 -338.000000 65039.000000 18 30 1
263.000000 -338.000000 65040.000000 17 28 1
264.000000 -338.000000 65040.000000 14 28 1
265.000000 -338.000000 65041.000000 12 26 14
266.000000 -338.000000 65042.000000 18 24 27
267.000000 -338.000000 65043.000000 24 24 14
268.000000 -338.000000 65043.000000 22 25 1
269.000000 -338.000000 65043.000000 21 21 6
270.000000 -338.000000 65043.000000 21 19 11
271.000000 -338.000000 65043.000000 21 20 6
272.000000 -338.000000 65043.000000 20 21 1
273.000000 -338.000000 65042.000000 20 23 6
274.000000 -338.000000 65042.000000 21 26 11
275.000000 -338.000000 65042.000000 23 22 6
276.000000 -338.000000 65041.000000 20 19 1
277.000000 -338.000000 65042.000000 18 18 2
278.000000 -338.000000 65042.000000 20 18 4
279.000000 -338.000000 65042.000000 23 21 3
280.000000 -338.000000 65042.000000 24 24 1
281.000000 -338.000000 65042.000000 26 20 1
282.000000 -338.000000 65042.000000 30 17 1
283.000000 -338.000000 65042.000000 34 16 1
284.000000 -338.000000 65042.000000 30 16 1
285.000000 -338.000000 65042.000000 26 18 1
286.000000 -338.000000 65042.000000 19 20 1
287.000000 -338.000000 65042.000000 12 22 1
288.000000 -338.000000 65042.000000 22 24 1
289.000000 -338.000000 65041.000000 32 20 1
290.000000 -338.000000 65041.000000 33 17 1
291.000000 -338.000000 65040.000000 35 17 1
292.000000 -338.000000 65040.000000 38 18 1
293.000000 -338.000000 65040.000000 42 17 1
294.000000 -338.000000 65039.000000 41 17 2
295.000000 -338.000000 65039.000000 41 21 2
296.000000 -338.000000 65038.000000 41 26 2
297.000000 -338.000000 65038.000000 42 26 1
298.000000 -338.000000 65037.000000 42 26 1
299.000000 -338.000000 65036.000000 42 29 1
300.000000 -338.000000 65036.000000 34 33 2
301.000000 -338.000000 65035.000000 27 33 1
302.000000 -338.000000 65035.000000 35 33 1
303.000000 -338.000000 65034.000000 43 31 1
304.000000 -338.000000 65033.000000 43 30 1
305.000000 -338.000000 65031.000000 44 31 2
306.000000 -338.000000 65029.000000 44 32 3
307.000000 -338.000000 65029.000000 44 35 2
308.000000 -338.000000 65029.000000 39 38 1
309.000000 -338.000000 65028.000000 34 40 1
310.000000 -338.000000 65027.000000 36 49 1
311.000000 -338.000000 65026.000000 39 65 5
312.000000 -338.000000 65026.000000 48 61 10
313.000000 -338.000000 65026.000000 57 62 11
314.000000 -338.000000 65026.000000 66 63 13
251.000000 -339.000000 65032.000000 18 25 1
252.000000 -339.000000 65033.000000 16 28 1
253.000000 -339.000000 65034.000000 14 32 1
254.000000 -339.000000 65035.000000 21 32 1
255.000000 -339.000000 65035.000000 28 33 1
256.000000 -339.000000 65036.000000 24 36 1
257.000000 -339.000000 65037.000000 20 41 1
258.000000 -339.000000 65038.000000 20 41 1
259.000000 -339.000000 65038.000000 19 41 1
260.000000 -339.000000 65038.000000 17 33 1
261.000000 -339.000000 65039.000000 16 35 1
262.000000 -339.000000 65040.000000 16 32 1
263.000000 -339.000000 65040.000000 17 29 1
264.000000 -339.000000 65040.000000 16 23 1
265.000000 -339.000000 65040.000000 14 13 2
266.000000 -339.000000 65041.000000 18 15 4
267.000000 -339.000000 65043.000000 22 18 2
268.000000 -339.000000 65043.000000 21 25 1
269.000000 -339.000000 65043.000000 20 23 11
270.000000 -339.000000 65043.000000 22 22 21
271.000000 -339.000000 65043.000000 24 26 11
272.000000 -339.000000 65043.000000 19 32 1
273.000000 -339.000000 65043.000000 15 38 1
274.000000 -339.000000 65042.000000 19 34 1
275.000000 -339.000000 65042.000000 22 30 1
276.000000 -339.000000 65042.000000 19 30 1
277.000000 -339.000000 65042.000000 16 30 4
278.000000 -339.000000 65042.000000 19 31 8
279.000000 -339.000000 65042.000000 22 33 4
280.000000 -339.000000 65042.000000 23 30 1
281.000000 -339.000000 65042.000000 25 28 1
282.000000 -339.000000 65042.000000 26 29 2
283.000000 -339.000000 65042.000000 27 30 1
284.000000 -339.000000 65042.000000 26 30 1
285.000000 -339.000000 65042.000000 26 30 1
286.000000 -339.000000 65042.000000 21 32 1
287.000000 -339.000000 65042.000000 16 34 1
288.000000 -339.000000 65042.000000 24 34 1
289.000000 -339.000000 65041.000000 32 34 1
290.000000 -339.000000 65041.000000 32 31 1
291.000000 -339.000000 65040.000000 33 29 1
292.000000 -339.000000 65040.000000 36 28 1
293.000000 -339.000000 65039.000000 40 28 1
294.000000 -339.000000 65039.000000 33 25 1
295.000000 -339.000000 65038.000000 27 23 1
296.000000 -339.000000 65038.000000 33 30 1
297.000000 -339.000000 65038.000000 38 38 1
298.000000 -339.000000 65037.000000 34 39 1
299.000000 -339.000000 65036.000000 29 41 1
300.000000 -339.000000 65036.000000 31 42 1
301.000000 -339.000000 65035.000000 33 44 1
302.000000 -339.000000 65035.000000 34 42 1
303.000000 -339.000000 65034.000000 34 41 1
304.000000 -339.000000 65033.000000 36 42 1
305.000000 -339.000000 65031.000000 39 44 1
306.000000 -339.000000 65029.000000 39 42 1
307.000000 -339.000000 65029.000000 40 41 1
308.000000 -339.000000 65028.000000 32 42 1
309.000000 -339.000000 65028.000000 25 44 1
310.000000 -339.000000 65027.000000 34 59 1
311.000000 -339.000000 65026.000000 44 65 6
312.000000 -339.000000 65026.000000 52 64 11
313.000000 -339.000000 65026.000000 61 64 16
314.000000 -339.000000 65026.000000 69 66 21
251.000000 -340.000000 65032.000000 21 34 1
252.000000 -340.000000 65033.000000 16 35 1
253.000000 -340.000000 65034.000000 12 32 1
254.000000 -340.000000 65035.000000 21 30 1
255.000000 -340.000000 65035.000000 30 33 1
256.000000 -340.000000 65036.000000 22 34 1
257.000000 -340.000000 65037.000000 15 36 1
258.000000 -340.000000 65038.000000 16 38 1
259.000000 -340.000000 65038.000000 17 41 1
260.000000 -340.000000 65038.000000 14 32 1
261.000000 -340.000000 65039.000000 12 33 1
262.000000 -340.000000 65040.000000 15 35 1
263.000000 -340.000000 65040.000000 18 32 1
264.000000 -340.000000 65040.000000 17 18 1
265.000000 -340.000000 65041.000000 17 18 1
266.000000 -340.000000 65041.000000 18 18 2
267.000000 -340.000000 65042.000000 20 19 1
268.000000 -340.000000 65042.000000 19 26 1
269.000000 -340.000000 65043.000000 19 22 6
270.000000 -340.000000 65043.000000 23 22 11
271.000000 -340.000000 65043.000000 27 29 6
272.000000 -340.000000 65043.000000 19 34 1
273.000000 -340.000000 65043.000000 11 38 1
274.000000 -340.000000 65043.000000 16 39 1
275.000000 -340.000000 65043.000000 22 39 1
276.000000 -340.000000 65043.000000 18 39 1
277.000000 -340.000000 65043.000000 15 29 2
278.000000 -340.000000 65042.000000 18 43 4
279.000000 -340.000000 65042.000000 21 31 2
280.000000 -340.000000 65042.000000 22 37 1
281.000000 -340.000000 65042.000000 24 36 1
282.000000 -340.000000 65042.000000 22 36 1
283.000000 -340.000000 65042.000000 20 28 1
284.000000 -340.000000 65042.000000 23 31 1
285.000000 -340.000000 65042.000000 26 28 1
286.000000 -340.000000 65042.000000 23 35 1
287.000000 -340.000000 65042.000000 21 35 1
288.000000 -340.000000 65042.000000 26 36 1
289.000000 -340.000000 65041.000000 32 37 1
290.000000 -340.000000 65041.000000 31 39 1
291.000000 -340.000000 65040.000000 31 39 1
292.000000 -340.000000 65040.000000 34 39 1
293.000000 -340.000000 65040.000000 38 34 1
294.000000 -340.000000 65039.000000 26 30 1
295.000000 -340.000000 65038.000000 14 32 2
296.000000 -340.000000 65038.000000 24 34 3
297.000000 -340.000000 65038.000000 35 44 2
298.000000 -340.000000 65037.000000 26 51 1
299.000000 -340.000000 65036.000000 17 50 1
300.000000 -340.000000 65036.000000 28 49 1
301.000000 -340.000000 65035.000000 40 48 1
302.000000 -340.000000 65035.000000 33 48 1
303.000000 -340.000000 65034.000000 26 47 2
304.000000 -340.000000 65033.000000 30 47 3
305.000000 -340.000000 65032.000000 34 47 3
306.000000 -340.000000 65029.000000 35 47 4
307.000000 -340.000000 65029.000000 37 48 2
308.000000 -340.000000 65028.000000 26 49 1
309.000000 -340.000000 65028.000000 16 59 1
310.000000 -340.000000 65028.000000 32 69 2
311.000000 -340.000000 65026.000000 49 66 4
312.000000 -340.000000 65026.000000 57 64 6
313.000000 -340.000000 65025.000000 65 70 10
314.000000 -340.000000 65025.000000 71 76 15
251.000000 -341.000000 65029.000000 26 44 1
252.000000 -341.000000 65032.000000 23 41 1
253.000000 -341.000000 65034.000000 21 39 1
254.000000 -341.000000 65035.000000 26 36 1
255.000000 -341.000000 65035.000000 31 34 1
256.000000 -341.000000 65036.000000 26 41 1
257.000000 -341.000000 65037.000000 22 51 1
258.000000 -341.000000 65038.000000 22 42 1
259.000000 -341.000000 65038.000000 23 41 1
260.000000 -341.000000 65038.000000 20 40 1
261.000000 -341.000000 65039.000000 17 40 1
262.000000 -341.000000 65040.000000 19 37 1
263.000000 -341.000000 65040.000000 22 36 1
264.000000 -341.000000 65040.000000 20 22 1
265.000000 -341.000000 65041.000000 18 19 1
266.000000 -341.000000 65042.000000 19 20 1
267.000000 -341.000000 65043.000000 19 21 1
268.000000 -341.000000 65043.000000 18 21 1
269.000000 -341.000000 65043.000000 17 21 1
270.000000 -341.000000 65043.000000 21 27 1
271.000000 -341.000000 65043.000000 26 33 1
272.000000 -341.000000 65043.000000 21 34 1
273.000000 -341.000000 65042.000000 16 39 1
274.000000 -341.000000 65042.000000 18 36 1
275.000000 -341.000000 65042.000000 21 34 1
276.000000 -341.000000 65042.000000 15 31 1
277.000000 -341.000000 65042.000000 8 29 1
278.000000 -341.000000 65042.000000 13 29 1
279.000000 -341.000000 65042.000000 19 30 1
280.000000 -341.000000 65042.000000 19 30 1
281.000000 -341.000000 65042.000000 20 30 1
282.000000 -341.000000 65042.000000 16 28 1
283.000000 -341.000000 65042.000000 12 27 1
284.000000 -341.000000 65043.000000 17 27 1
285.000000 -341.000000 65042.000000 23 27 1
286.000000 -341.000000 65042.000000 22 29 1
287.000000 -341.000000 65042.000000 22 32 1
288.000000 -341.000000 65042.000000 21 34 1
289.000000 -341.000000 65041.000000 21 42 1
290.000000 -341.000000 65041.000000 21 40 1
291.000000 -341.000000 65040.000000 22 39 1
292.000000 -341.000000 65040.000000 30 39 1
293.000000 -341.000000 65040.000000 39 39 1
294.000000 -341.000000 65039.000000 30 33 1
295.000000 -341.000000 65038.000000 21 29 3
296.000000 -341.000000 65038.000000 31 43 5
297.000000 -341.000000 65038.000000 42 50 3
298.000000 -341.000000 65037.000000 37 50 1
299.000000 -341.000000 65036.000000 32 54 1
300.000000 -341.000000 65035.000000 39 54 1
301.000000 -341.000000 65035.000000 46 54 1
302.000000 -341.000000 65035.000000 40 54 1
303.000000 -341.000000 65034.000000 34 54 3
304.000000 -341.000000 65033.000000 37 45 5
305.000000 -341.000000 65032.000000 40 46 6
306.000000 -341.000000 65030.000000 43 53 7
307.000000 -341.000000 65029.000000 46 60 4
308.000000 -341.000000 65028.000000 41 66 1
309.000000 -341.000000 65028.000000 36 72 2
310.000000 -341.000000 65028.000000 46 77 4
311.000000 -341.000000 65026.000000 56 82 3
312.000000 -341.000000 65025.000000 62 79 2
313.000000 -341.000000 65025.000000 68 77 5
314.000000 -341.000000 65025.000000 73 77 9
249.000000 -342.000000 65027.000000 38 44 1
250.000000 -342.000000 65028.000000 35 41 1
251.000000 -342.000000 65029.000000 32 43 1
252.000000 -342.000000 65032.000000 31 44 1
253.000000 -342.000000 65034.000000 30 44 1
254.000000 -342.000000 65035.000000 31 44 1
255.000000 -342.000000 65035.000000 32 46 2
256.000000 -342.000000 65036.000000 30 49 3
257.000000 -342.000000 65037.000000 29 50 2
258.000000 -342.000000 65037.000000 29 46 1
259.000000 -342.000000 65038.000000 30 45 1
260.000000 -342.000000 65038.000000 26 45 1
261.000000 -342.000000 65039.000000 23 42 1
262.000000 -342.000000 65040.000000 24 39 1
263.000000 -342.000000 65040.000000 26 40 1
264.000000 -342.000000 65040.000000 23 26 1
265.000000 -342.000000 65041.000000 20 23 1
266.000000 -342.000000 65042.000000 19 21 1
267.000000 -342.000000 65043.000000 19 21 1
268.000000 -342.000000 65043.000000 17 21 1
269.000000 -342.000000 65043.000000 16 27 4
270.000000 -342.000000 65043.000000 20 33 7
271.000000 -342.000000 65042.000000 25 33 4
272.000000 -342.000000 65042.000000 23 34 1
273.000000 -342.000000 65042.000000 21 40 1
274.000000 -342.000000 65042.000000 21 30 1
275.000000 -342.000000 65042.000000 21 37 1
276.000000 -342.000000 65042.000000 11 23 1
277.000000 -342.000000 65042.000000 2 21 1
278.000000 -342.000000 65042.000000 9 19 1
279.000000 -342.000000 65042.000000 17 15 1
280.000000 -342.000000 65041.000000 17 11 2
281.000000 -342.000000 65042.000000 17 25 3
282.000000 -342.000000 65042.000000 10 21 5
283.000000 -342.000000 65042.000000 4 21 3
284.000000 -342.000000 65043.000000 12 22 1
285.000000 -342.000000 65042.000000 20 22 1
286.000000 -342.000000 65042.000000 21 22 2
287.000000 -342.000000 65042.000000 23 35 1
288.000000 -342.000000 65042.000000 17 32 1
289.000000 -342.000000 65042.000000 11 38 1
290.000000 -342.000000 65041.000000 12 35 1
291.000000 -342.000000 65040.000000 13 37 1
292.000000 -342.000000 65040.000000 27 39 1
293.000000 -342.000000 65040.000000 41 38 2
294.000000 -342.000000 65039.000000 34 37 4
295.000000 -342.000000 65038.000000 28 44 10
296.000000 -342.000000 65038.000000 39 52 15
297.000000 -342.000000 65038.000000 50 50 8
298.000000 -342.000000 65037.000000 48 49 2
299.000000 -342.000000 65036.000000 47 54 1
300.000000 -342.000000 65035.000000 49 60 1
301.000000 -342.000000 65035.000000 52 66 1
302.000000 -342.000000 65034.000000 47 73 1
303.000000 -342.000000 65033.000000 42 63 2
304.000000 -342.000000 65032.000000 44 44 4
305.000000 -342.000000 65032.000000 47 61 4
306.000000 -342.000000 65030.000000 51 79 4
307.000000 -342.000000 65029.000000 55 76 2
308.000000 -342.000000 65028.000000 55 73 1
309.000000 -342.000000 65028.000000 56 79 2
310.000000 -342.000000 65027.000000 60 86 3
311.000000 -342.000000 65026.000000 64 84 2
312.000000 -342.000000 65025.000000 68 83 1
313.000000 -342.000000 65025.000000 72 80 14
314.000000 -342.000000 65025.000000 75 78 26
247.000000 -343.000000 65026.000000 55 53 1
248.000000 -343.000000 65026.000000 47 48 1
249.000000 -343.000000 65026.000000 40 46 1
250.000000 -343.000000 65028.000000 41 44 1
251.000000 -343.000000 65029.000000 41 43 1
252.000000 -343.000000 65032.000000 38 43 1
253.000000 -343.000000 65032.000000 34 46 1
254.000000 -343.000000 65035.000000 33 46 1
255.000000 -343.000000 65035.000000 33 47 3
256.000000 -343.000000 65035.000000 32 48 5
257.000000 -343.000000 65036.000000 31 49 3
258.000000 -343.000000 65037.000000 33 46 1
259.000000 -343.000000 65038.000000 35 46 1
260.000000 -343.000000 65038.000000 31 45 1
261.000000 -343.000000 65039.000000 27 48 1
262.000000 -343.000000 65040.000000 28 46 1
263.000000 -343.000000 65040.000000 29 44 1
264.000000 -343.000000 65041.000000 28 37 1
265.000000 -343.000000 65041.000000 27 31 1
266.000000 -343.000000 65043.000000 25 29 1
267.000000 -343.000000 65043.000000 24 28 1
268.000000 -343.000000 65043.000000 20 33 1
269.000000 -343.000000 65043.000000 16 39 7
270.000000 -343.000000 65043.000000 20 39 13
271.000000 -343.000000 65043.000000 25 39 7
272.000000 -343.000000 65043.000000 27 40 1
273.000000 -343.000000 65043.000000 29 41 1
274.000000 -343.000000 65043.000000 30 40 1
275.000000 -343.000000 65043.000000 32 40 1
276.000000 -343.000000 65043.000000 27 41 1
277.000000 -343.000000 65043.000000 22 42 1
278.000000 -343.000000 65043.000000 26 29 1
