ply
    format ascii 1.0
    element vertex 10420
    property float x
    property float y
    property float z
    property uchar red
    property uchar green
    property uchar blue
    end_header
260.000000 -286.000000 65029.000000 35 58 1
261.000000 -286.000000 65031.000000 26 48 1
262.000000 -286.000000 65032.000000 22 39 2
263.000000 -286.000000 65034.000000 18 36 1
264.000000 -286.000000 65035.000000 13 10 1
265.000000 -286.000000 65035.000000 9 3 2
266.000000 -286.000000 65035.000000 8 4 4
267.000000 -286.000000 65035.000000 8 4 2
268.000000 -286.000000 65035.000000 8 5 1
269.000000 -286.000000 65035.000000 8 4 1
270.000000 -286.000000 65035.000000 5 4 1
271.000000 -286.000000 65035.000000 2 2 1
272.000000 -286.000000 65035.000000 2 1 1
273.000000 -286.000000 65033.000000 2 2 3
274.000000 -286.000000 65033.000000 7 5 5
275.000000 -286.000000 65033.000000 12 4 5
276.000000 -286.000000 65032.000000 22 42 5
277.000000 -286.000000 65033.000000 33 14 3
278.000000 -286.000000 65033.000000 18 13 1
279.000000 -286.000000 65032.000000 3 8 1
280.000000 -286.000000 65032.000000 2 3 1
281.000000 -286.000000 65032.000000 1 3 1
282.000000 -286.000000 65032.000000 5 4 1
283.000000 -286.000000 65032.000000 9 8 1
284.000000 -286.000000 65032.000000 19 45 1
285.000000 -286.000000 65032.000000 30 46 1
286.000000 -286.000000 65032.000000 32 48 1
287.000000 -286.000000 65032.000000 34 52 1
288.000000 -286.000000 65031.000000 34 56 2
289.000000 -286.000000 65031.000000 34 48 1
290.000000 -286.000000 65032.000000 41 41 1
291.000000 -286.000000 65032.000000 48 52 1
292.000000 -286.000000 65031.000000 46 58 1
293.000000 -286.000000 65030.000000 44 66 1
294.000000 -286.000000 65029.000000 52 77 1
295.000000 -286.000000 65029.000000 60 86 1
296.000000 -286.000000 65029.000000 65 90 1
297.000000 -286.000000 65028.000000 71 91 1
298.000000 -286.000000 65028.000000 68 93 1
299.000000 -286.000000 65027.000000 66 93 3
300.000000 -286.000000 65028.000000 68 96 6
301.000000 -286.000000 65028.000000 71 95 3
245.000000 -287.000000 65011.000000 22 46 13
246.000000 -287.000000 65012.000000 21 46 1
247.000000 -287.000000 65013.000000 20 50 1
248.000000 -287.000000 65013.000000 18 46 1
249.000000 -287.000000 65019.000000 16 45 1
250.000000 -287.000000 65020.000000 25 52 1
251.000000 -287.000000 65020.000000 35 52 1
252.000000 -287.000000 65022.000000 40 51 1
253.000000 -287.000000 65023.000000 45 50 1
254.000000 -287.000000 65024.000000 47 52 1
255.000000 -287.000000 65026.000000 48 54 1
256.000000 -287.000000 65027.000000 52 55 1
257.000000 -287.000000 65029.000000 57 57 1
258.000000 -287.000000 65029.000000 48 56 1
259.000000 -287.000000 65029.000000 40 56 1
260.000000 -287.000000 65030.000000 34 55 1
261.000000 -287.000000 65032.000000 28 50 2
262.000000 -287.000000 65032.000000 27 48 3
263.000000 -287.000000 65034.000000 26 46 2
264.000000 -287.000000 65035.000000 21 27 1
265.000000 -287.000000 65035.000000 17 3 4
266.000000 -287.000000 65035.000000 21 12 7
267.000000 -287.000000 65036.000000 25 21 4
268.000000 -287.000000 65035.000000 18 20 1
269.000000 -287.000000 65035.000000 12 20 1
270.000000 -287.000000 65035.000000 7 6 1
271.000000 -287.000000 65036.000000 3 2 1
272.000000 -287.000000 65035.000000 2 1 1
273.000000 -287.000000 65033.000000 1 2 5
274.000000 -287.000000 65033.000000 4 2 10
275.000000 -287.000000 65032.000000 7 2 9
276.000000 -287.000000 65033.000000 14 12 9
277.000000 -287.000000 65033.000000 21 23 5
278.000000 -287.000000 65032.000000 14 14 1
279.000000 -287.000000 65032.000000 7 10 1
280.000000 -287.000000 65032.000000 5 3 1
281.000000 -287.000000 65032.000000 4 11 1
282.000000 -287.000000 65032.000000 9 12 1
283.000000 -287.000000 65032.000000 15 13 1
284.000000 -287.000000 65032.000000 27 47 2
285.000000 -287.000000 65032.000000 40 56 2
286.000000 -287.000000 65032.000000 37 56 2
287.000000 -287.000000 65032.000000 35 56 2
288.000000 -287.000000 65031.000000 35 56 2
289.000000 -287.000000 65031.000000 35 50 1
290.000000 -287.000000 65032.000000 40 50 1
291.000000 -287.000000 65032.000000 44 51 1
292.000000 -287.000000 65030.000000 44 57 1
293.000000 -287.000000 65030.000000 43 63 1
294.000000 -287.000000 65029.000000 50 76 1
295.000000 -287.000000 65029.000000 58 84 1
296.000000 -287.000000 65029.000000 64 87 1
297.000000 -287.000000 65029.000000 70 90 1
298.000000 -287.000000 65029.000000 68 91 1
299.000000 -287.000000 65029.000000 66 92 6
300.000000 -287.000000 65028.000000 68 94 11
301.000000 -287.000000 65028.000000 70 96 6
245.000000 -288.000000 65011.000000 28 41 8
246.000000 -288.000000 65013.000000 25 45 1
247.000000 -288.000000 65013.000000 22 45 2
248.000000 -288.000000 65013.000000 22 46 4
249.000000 -288.000000 65019.000000 22 47 2
250.000000 -288.000000 65020.000000 29 53 1
251.000000 -288.000000 65021.000000 36 53 1
252.000000 -288.000000 65022.000000 41 53 1
253.000000 -288.000000 65023.000000 47 53 9
254.000000 -288.000000 65024.000000 48 54 17
255.000000 -288.000000 65026.000000 50 53 9
256.000000 -288.000000 65029.000000 49 57 1
257.000000 -288.000000 65029.000000 49 57 1
258.000000 -288.000000 65029.000000 42 54 1
259.000000 -288.000000 65030.000000 35 54 1
260.000000 -288.000000 65031.000000 32 53 1
261.000000 -288.000000 65032.000000 30 51 1
262.000000 -288.000000 65035.000000 32 49 2
263.000000 -288.000000 65035.000000 34 45 1
264.000000 -288.000000 65035.000000 30 45 1
265.000000 -288.000000 65035.000000 26 42 3
266.000000 -288.000000 65035.000000 34 39 5
267.000000 -288.000000 65036.000000 42 38 3
268.000000 -288.000000 65036.000000 29 38 1
269.000000 -288.000000 65036.000000 17 33 1
270.000000 -288.000000 65035.000000 10 9 1
271.000000 -288.000000 65036.000000 4 4 1
272.000000 -288.000000 65035.000000 2 1 1
273.000000 -288.000000 65035.000000 1 1 3
274.000000 -288.000000 65034.000000 1 2 5
275.000000 -288.000000 65034.000000 2 3 5
276.000000 -288.000000 65032.000000 5 7 5
277.000000 -288.000000 65032.000000 9 11 3
278.000000 -288.000000 65032.000000 10 16 1
279.000000 -288.000000 65032.000000 11 9 1
280.000000 -288.000000 65032.000000 9 3 1
281.000000 -288.000000 65032.000000 7 10 1
282.000000 -288.000000 65032.000000 14 12 1
283.000000 -288.000000 65032.000000 22 31 1
284.000000 -288.000000 65032.000000 36 50 2
285.000000 -288.000000 65032.000000 50 50 1
286.000000 -288.000000 65032.000000 43 50 1
287.000000 -288.000000 65032.000000 36 55 1
288.000000 -288.000000 65032.000000 36 57 1
289.000000 -288.000000 65032.000000 37 50 1
290.000000 -288.000000 65032.000000 39 49 1
291.000000 -288.000000 65032.000000 41 54 1
292.000000 -288.000000 65032.000000 42 57 1
293.000000 -288.000000 65031.000000 43 66 1
294.000000 -288.000000 65031.000000 49 76 1
295.000000 -288.000000 65030.000000 56 82 1
296.000000 -288.000000 65030.000000 62 85 1
297.000000 -288.000000 65029.000000 69 89 1
298.000000 -288.000000 65029.000000 68 91 1
299.000000 -288.000000 65029.000000 67 92 3
243.000000 -289.000000 65010.000000 32 39 3
244.000000 -289.000000 65011.000000 30 38 4
245.000000 -289.000000 65011.000000 28 34 2
246.000000 -289.000000 65012.000000 24 39 1
247.000000 -289.000000 65012.000000 21 45 4
248.000000 -289.000000 65020.000000 21 47 7
249.000000 -289.000000 65020.000000 21 49 4
250.000000 -289.000000 65020.000000 27 51 1
251.000000 -289.000000 65023.000000 33 53 1
252.000000 -289.000000 65023.000000 39 53 1
253.000000 -289.000000 65023.000000 46 55 17
254.000000 -289.000000 65023.000000 49 54 33
255.000000 -289.000000 65029.000000 53 53 17
256.000000 -289.000000 65029.000000 51 58 2
257.000000 -289.000000 65029.000000 50 57 1
258.000000 -289.000000 65029.000000 43 55 1
259.000000 -289.000000 65031.000000 36 55 1
260.000000 -289.000000 65031.000000 33 53 1
261.000000 -289.000000 65034.000000 30 53 1
262.000000 -289.000000 65034.000000 31 48 1
263.000000 -289.000000 65035.000000 32 45 1
264.000000 -289.000000 65035.000000 30 45 1
265.000000 -289.000000 65035.000000 28 45 2
266.000000 -289.000000 65036.000000 32 43 3
267.000000 -289.000000 65036.000000 37 42 2
268.000000 -289.000000 65036.000000 30 44 1
269.000000 -289.000000 65035.000000 23 46 1
270.000000 -289.000000 65035.000000 17 27 1
271.000000 -289.000000 65035.000000 11 7 1
272.000000 -289.000000 65035.000000 7 5 1
273.000000 -289.000000 65035.000000 3 4 1
274.000000 -289.000000 65034.000000 2 4 1
275.000000 -289.000000 65033.000000 2 5 1
276.000000 -289.000000 65032.000000 4 4 1
277.000000 -289.000000 65033.000000 6 12 1
278.000000 -289.000000 65032.000000 10 10 1
279.000000 -289.000000 65032.000000 14 9 1
280.000000 -289.000000 65032.000000 18 9 1
281.000000 -289.000000 65032.000000 22 10 1
282.000000 -289.000000 65032.000000 27 30 2
283.000000 -289.000000 65032.000000 31 50 2
284.000000 -289.000000 65032.000000 38 50 2
285.000000 -289.000000 65032.000000 45 50 1
286.000000 -289.000000 65032.000000 42 52 1
287.000000 -289.000000 65032.000000 39 55 1
288.000000 -289.000000 65032.000000 39 56 1
289.000000 -289.000000 65032.000000 39 51 1
290.000000 -289.000000 65032.000000 40 54 1
291.000000 -289.000000 65032.000000 40 57 1
292.000000 -289.000000 65031.000000 39 60 1
293.000000 -289.000000 65031.000000 38 69 1
294.000000 -289.000000 65031.000000 48 75 1
295.000000 -289.000000 65030.000000 58 81 1
296.000000 -289.000000 65030.000000 66 85 2
297.000000 -289.000000 65030.000000 74 89 1
298.000000 -289.000000 65030.000000 72 91 1
299.000000 -289.000000 65030.000000 70 93 1
243.000000 -290.000000 65010.000000 34 35 19
244.000000 -290.000000 65010.000000 31 39 24
245.000000 -290.000000 65011.000000 28 36 12
246.000000 -290.000000 65012.000000 24 33 1
247.000000 -290.000000 65012.000000 21 39 2
248.000000 -290.000000 65020.000000 21 37 4
249.000000 -290.000000 65020.000000 21 40 2
250.000000 -290.000000 65020.000000 26 44 1
251.000000 -290.000000 65020.000000 31 51 1
252.000000 -290.000000 65022.000000 38 54 1
253.000000 -290.000000 65023.000000 45 54 9
254.000000 -290.000000 65023.000000 50 55 17
255.000000 -290.000000 65023.000000 56 53 10
256.000000 -290.000000 65029.000000 53 60 3
257.000000 -290.000000 65029.000000 51 58 2
258.000000 -290.000000 65029.000000 44 56 1
259.000000 -290.000000 65030.000000 38 55 1
260.000000 -290.000000 65031.000000 34 51 1
261.000000 -290.000000 65033.000000 30 49 1
262.000000 -290.000000 65033.000000 30 48 1
263.000000 -290.000000 65034.000000 30 46 1
264.000000 -290.000000 65035.000000 30 44 1
265.000000 -290.000000 65035.000000 30 44 1
266.000000 -290.000000 65035.000000 31 44 2
267.000000 -290.000000 65035.000000 33 47 1
268.000000 -290.000000 65035.000000 31 50 1
269.000000 -290.000000 65035.000000 30 49 3
270.000000 -290.000000 65035.000000 24 48 5
271.000000 -290.000000 65035.000000 18 31 3
272.000000 -290.000000 65035.000000 12 14 1
273.000000 -290.000000 65035.000000 6 11 1
274.000000 -290.000000 65034.000000 4 9 1
275.000000 -290.000000 65034.000000 2 4 1
276.000000 -290.000000 65033.000000 2 2 1
277.000000 -290.000000 65034.000000 3 5 1
278.000000 -290.000000 65032.000000 10 8 2
279.000000 -290.000000 65032.000000 17 20 1
280.000000 -290.000000 65033.000000 27 58 1
281.000000 -290.000000 65032.000000 38 55 1
282.000000 -290.000000 65032.000000 39 53 1
283.000000 -290.000000 65032.000000 41 53 6
284.000000 -290.000000 65032.000000 41 54 12
285.000000 -290.000000 65032.000000 41 54 6
286.000000 -290.000000 65032.000000 41 54 1
287.000000 -290.000000 65032.000000 42 54 1
288.000000 -290.000000 65032.000000 42 55 1
289.000000 -290.000000 65032.000000 42 55 1
290.000000 -290.000000 65032.000000 41 56 1
291.000000 -290.000000 65032.000000 40 59 1
292.000000 -290.000000 65031.000000 36 64 1
293.000000 -290.000000 65032.000000 33 68 1
294.000000 -290.000000 65031.000000 47 74 1
295.000000 -290.000000 65031.000000 61 84 1
296.000000 -290.000000 65030.000000 70 95 2
297.000000 -290.000000 65030.000000 80 88 1
298.000000 -290.000000 65030.000000 76 91 1
299.000000 -290.000000 65030.000000 73 93 1
244.000000 -291.000000 65010.000000 32 40 44
245.000000 -291.000000 65011.000000 28 44 22
246.000000 -291.000000 65012.000000 22 42 1
247.000000 -291.000000 65012.000000 17 41 1
249.000000 -291.000000 65020.000000 23 40 1
250.000000 -291.000000 65020.000000 27 45 1
251.000000 -291.000000 65020.000000 31 49 1
252.000000 -291.000000 65022.000000 38 48 1
253.000000 -291.000000 65023.000000 45 48 1
254.000000 -291.000000 65023.000000 51 54 1
255.000000 -291.000000 65029.000000 57 54 2
256.000000 -291.000000 65029.000000 53 58 4
257.000000 -291.000000 65029.000000 48 59 2
258.000000 -291.000000 65029.000000 41 56 1
259.000000 -291.000000 65030.000000 34 56 1
260.000000 -291.000000 65032.000000 32 52 1
261.000000 -291.000000 65032.000000 31 48 1
262.000000 -291.000000 65033.000000 32 48 1
263.000000 -291.000000 65034.000000 34 48 1
264.000000 -291.000000 65034.000000 33 48 1
265.000000 -291.000000 65035.000000 31 48 1
266.000000 -291.000000 65035.000000 32 48 1
267.000000 -291.000000 65035.000000 33 49 1
268.000000 -291.000000 65035.000000 33 49 1
269.000000 -291.000000 65035.000000 32 53 5
270.000000 -291.000000 65035.000000 27 53 9
271.000000 -291.000000 65035.000000 22 54 5
272.000000 -291.000000 65035.000000 15 20 1
273.000000 -291.000000 65035.000000 8 13 1
274.000000 -291.000000 65035.000000 5 7 1
275.000000 -291.000000 65034.000000 2 3 1
276.000000 -291.000000 65034.000000 2 3 1
277.000000 -291.000000 65034.000000 2 4 2
278.000000 -291.000000 65032.000000 7 8 3
279.000000 -291.000000 65032.000000 13 32 2
280.000000 -291.000000 65032.000000 25 52 1
281.000000 -291.000000 65032.000000 36 55 1
282.000000 -291.000000 65032.000000 40 54 1
283.000000 -291.000000 65032.000000 45 55 11
284.000000 -291.000000 65032.000000 43 54 22
285.000000 -291.000000 65032.000000 41 54 11
286.000000 -291.000000 65032.000000 42 54 1
287.000000 -291.000000 65032.000000 43 54 1
288.000000 -291.000000 65032.000000 41 55 1
289.000000 -291.000000 65032.000000 38 62 1
290.000000 -291.000000 65032.000000 39 62 1
291.000000 -291.000000 65032.000000 40 62 1
292.000000 -291.000000 65032.000000 39 63 1
293.000000 -291.000000 65032.000000 38 67 1
294.000000 -291.000000 65032.000000 49 75 1
295.000000 -291.000000 65031.000000 60 87 1
296.000000 -291.000000 65031.000000 68 87 2
297.000000 -291.000000 65031.000000 76 88 1
298.000000 -291.000000 65031.000000 74 92 1
299.000000 -291.000000 65031.000000 72 93 1
249.000000 -292.000000 65018.000000 25 43 1
250.000000 -292.000000 65020.000000 28 47 1
251.000000 -292.000000 65020.000000 32 49 1
252.000000 -292.000000 65022.000000 38 50 1
253.000000 -292.000000 65023.000000 45 50 1
254.000000 -292.000000 65023.000000 52 53 1
255.000000 -292.000000 65029.000000 59 55 9
256.000000 -292.000000 65029.000000 52 56 17
257.000000 -292.000000 65029.000000 46 56 9
258.000000 -292.000000 65029.000000 38 57 1
259.000000 -292.000000 65030.000000 30 55 1
260.000000 -292.000000 65032.000000 31 53 1
261.000000 -292.000000 65032.000000 32 51 1
262.000000 -292.000000 65033.000000 35 50 1
263.000000 -292.000000 65034.000000 39 48 1
264.000000 -292.000000 65034.000000 36 48 1
265.000000 -292.000000 65035.000000 33 48 1
266.000000 -292.000000 65035.000000 33 48 1
267.000000 -292.000000 65035.000000 34 48 1
268.000000 -292.000000 65035.000000 34 48 1
269.000000 -292.000000 65035.000000 35 53 3
270.000000 -292.000000 65035.000000 30 53 5
271.000000 -292.000000 65035.000000 26 50 3
272.000000 -292.000000 65035.000000 18 26 1
273.000000 -292.000000 65035.000000 11 12 1
274.000000 -292.000000 65035.000000 7 6 1
275.000000 -292.000000 65034.000000 3 3 1
276.000000 -292.000000 65034.000000 2 3 1
277.000000 -292.000000 65034.000000 1 3 1
278.000000 -292.000000 65034.000000 5 8 2
279.000000 -292.000000 65032.000000 10 18 5
280.000000 -292.000000 65033.000000 22 47 8
281.000000 -292.000000 65032.000000 35 55 4
282.000000 -292.000000 65032.000000 42 53 1
283.000000 -292.000000 65033.000000 49 55 6
284.000000 -292.000000 65032.000000 45 61 11
285.000000 -292.000000 65032.000000 42 53 6
286.000000 -292.000000 65032.000000 43 53 1
287.000000 -292.000000 65032.000000 45 54 1
288.000000 -292.000000 65032.000000 40 55 1
289.000000 -292.000000 65032.000000 35 60 1
290.000000 -292.000000 65032.000000 37 63 1
291.000000 -292.000000 65032.000000 40 60 1
292.000000 -292.000000 65032.000000 42 59 1
293.000000 -292.000000 65032.000000 44 65 1
294.000000 -292.000000 65032.000000 51 76 1
295.000000 -292.000000 65032.000000 59 85 13
296.000000 -292.000000 65031.000000 66 88 25
297.000000 -292.000000 65031.000000 73 89 13
298.000000 -292.000000 65031.000000 72 94 1
299.000000 -292.000000 65031.000000 71 94 1
249.000000 -293.000000 65017.000000 26 42 1
250.000000 -293.000000 65019.000000 29 46 1
251.000000 -293.000000 65020.000000 32 52 1
252.000000 -293.000000 65021.000000 37 51 1
253.000000 -293.000000 65023.000000 43 51 1
254.000000 -293.000000 65023.000000 48 55 1
255.000000 -293.000000 65023.000000 54 57 15
256.000000 -293.000000 65029.000000 49 60 30
257.000000 -293.000000 65029.000000 45 64 15
258.000000 -293.000000 65029.000000 35 58 1
259.000000 -293.000000 65030.000000 25 51 1
260.000000 -293.000000 65031.000000 28 51 1
261.000000 -293.000000 65032.000000 31 52 1
262.000000 -293.000000 65032.000000 33 50 1
263.000000 -293.000000 65033.000000 36 49 1
264.000000 -293.000000 65033.000000 34 47 1
265.000000 -293.000000 65034.000000 33 42 1
266.000000 -293.000000 65035.000000 33 48 1
267.000000 -293.000000 65035.000000 34 47 1
268.000000 -293.000000 65035.000000 37 50 2
269.000000 -293.000000 65035.000000 41 54 2
270.000000 -293.000000 65034.000000 31 52 2
271.000000 -293.000000 65035.000000 21 47 1
272.000000 -293.000000 65035.000000 13 23 1
273.000000 -293.000000 65035.000000 6 12 1
274.000000 -293.000000 65035.000000 6 9 1
275.000000 -293.000000 65035.000000 6 4 1
276.000000 -293.000000 65034.000000 4 3 1
277.000000 -293.000000 65035.000000 3 3 1
278.000000 -293.000000 65035.000000 5 4 1
279.000000 -293.000000 65033.000000 8 5 8
280.000000 -293.000000 65033.000000 18 33 16
281.000000 -293.000000 65032.000000 28 55 8
282.000000 -293.000000 65033.000000 36 55 1
283.000000 -293.000000 65033.000000 45 56 1
284.000000 -293.000000 65032.000000 43 54 1
285.000000 -293.000000 65032.000000 41 53 1
286.000000 -293.000000 65032.000000 42 53 1
287.000000 -293.000000 65032.000000 43 54 1
288.000000 -293.000000 65033.000000 40 55 1
289.000000 -293.000000 65032.000000 37 58 1
290.000000 -293.000000 65032.000000 39 58 1
291.000000 -293.000000 65032.000000 42 58 1
292.000000 -293.000000 65032.000000 43 57 1
293.000000 -293.000000 65032.000000 44 64 1
294.000000 -293.000000 65032.000000 52 73 1
295.000000 -293.000000 65031.000000 59 83 25
296.000000 -293.000000 65031.000000 65 86 49
297.000000 -293.000000 65031.000000 71 90 25
298.000000 -293.000000 65031.000000 70 93 1
249.000000 -294.000000 65017.000000 28 46 1
250.000000 -294.000000 65019.000000 30 46 1
251.000000 -294.000000 65020.000000 32 51 1
252.000000 -294.000000 65020.000000 37 53 1
253.000000 -294.000000 65023.000000 42 51 1
254.000000 -294.000000 65025.000000 45 57 1
255.000000 -294.000000 65028.000000 49 55 8
256.000000 -294.000000 65029.000000 46 65 15
257.000000 -294.000000 65029.000000 44 62 8
258.000000 -294.000000 65029.000000 32 59 1
259.000000 -294.000000 65031.000000 21 58 1
260.000000 -294.000000 65032.000000 25 57 1
261.000000 -294.000000 65032.000000 30 52 1
262.000000 -294.000000 65033.000000 31 50 1
263.000000 -294.000000 65033.000000 33 48 1
264.000000 -294.000000 65033.000000 33 46 1
265.000000 -294.000000 65034.000000 33 47 1
266.000000 -294.000000 65035.000000 34 48 1
267.000000 -294.000000 65034.000000 35 46 2
268.000000 -294.000000 65035.000000 41 52 3
269.000000 -294.000000 65035.000000 47 52 2
270.000000 -294.000000 65035.000000 31 52 2
271.000000 -294.000000 65035.000000 16 38 1
272.000000 -294.000000 65035.000000 8 20 1
273.000000 -294.000000 65035.000000 1 10 1
274.000000 -294.000000 65035.000000 5 12 1
275.000000 -294.000000 65035.000000 10 12 1
276.000000 -294.000000 65034.000000 7 12 1
277.000000 -294.000000 65034.000000 5 7 1
278.000000 -294.000000 65033.000000 6 3 1
279.000000 -294.000000 65033.000000 7 6 7
280.000000 -294.000000 65033.000000 14 19 14
281.000000 -294.000000 65032.000000 21 42 7
282.000000 -294.000000 65032.000000 31 69 1
283.000000 -294.000000 65033.000000 42 58 1
284.000000 -294.000000 65033.000000 41 56 1
285.000000 -294.000000 65032.000000 41 55 1
286.000000 -294.000000 65032.000000 41 55 2
287.000000 -294.000000 65032.000000 41 55 1
288.000000 -294.000000 65033.000000 40 55 1
289.000000 -294.000000 65032.000000 39 56 1
290.000000 -294.000000 65032.000000 41 55 1
291.000000 -294.000000 65032.000000 44 55 1
292.000000 -294.000000 65032.000000 44 56 1
293.000000 -294.000000 65032.000000 45 61 1
294.000000 -294.000000 65032.000000 52 71 1
295.000000 -294.000000 65031.000000 60 81 13
296.000000 -294.000000 65031.000000 64 85 25
297.000000 -294.000000 65031.000000 69 91 13
298.000000 -294.000000 65032.000000 69 92 1
299.000000 -294.000000 65032.000000 69 93 1
248.000000 -295.000000 65018.000000 21 42 1
249.000000 -295.000000 65017.000000 25 39 1
250.000000 -295.000000 65020.000000 26 44 1
251.000000 -295.000000 65021.000000 27 50 1
252.000000 -295.000000 65021.000000 33 53 1
253.000000 -295.000000 65023.000000 39 51 1
254.000000 -295.000000 65025.000000 42 52 1
255.000000 -295.000000 65028.000000 45 53 1
256.000000 -295.000000 65029.000000 42 54 1
257.000000 -295.000000 65029.000000 40 55 1
258.000000 -295.000000 65030.000000 33 59 1
259.000000 -295.000000 65031.000000 27 58 1
260.000000 -295.000000 65032.000000 29 55 1
261.000000 -295.000000 65032.000000 30 53 1
262.000000 -295.000000 65033.000000 32 51 1
263.000000 -295.000000 65034.000000 34 48 1
264.000000 -295.000000 65034.000000 34 48 1
265.000000 -295.000000 65034.000000 34 49 1
266.000000 -295.000000 65035.000000 34 47 1
267.000000 -295.000000 65035.000000 34 46 2
268.000000 -295.000000 65035.000000 35 52 4
269.000000 -295.000000 65035.000000 36 53 3
270.000000 -295.000000 65035.000000 24 45 2
271.000000 -295.000000 65035.000000 12 30 1
272.000000 -295.000000 65035.000000 8 15 1
273.000000 -295.000000 65035.000000 4 9 1
274.000000 -295.000000 65035.000000 6 16 1
275.000000 -295.000000 65035.000000 8 18 1
276.000000 -295.000000 65034.000000 7 18 1
277.000000 -295.000000 65035.000000 7 18 1
278.000000 -295.000000 65033.000000 7 12 1
279.000000 -295.000000 65033.000000 8 7 7
280.000000 -295.000000 65033.000000 12 15 13
281.000000 -295.000000 65032.000000 16 29 7
282.000000 -295.000000 65032.000000 24 45 1
283.000000 -295.000000 65033.000000 32 61 1
284.000000 -295.000000 65033.000000 39 55 1
285.000000 -295.000000 65033.000000 46 55 2
286.000000 -295.000000 65033.000000 43 56 3
287.000000 -295.000000 65032.000000 41 57 2
288.000000 -295.000000 65033.000000 41 55 1
289.000000 -295.000000 65032.000000 40 58 1
290.000000 -295.000000 65032.000000 41 56 1
291.000000 -295.000000 65032.000000 42 53 1
292.000000 -295.000000 65032.000000 43 55 1
293.000000 -295.000000 65032.000000 45 58 1
294.000000 -295.000000 65032.000000 52 71 1
295.000000 -295.000000 65031.000000 58 80 1
296.000000 -295.000000 65030.000000 66 87 1
297.000000 -295.000000 65031.000000 73 93 1
298.000000 -295.000000 65032.000000 71 92 1
299.000000 -295.000000 65032.000000 69 93 1
246.000000 -296.000000 65014.000000 27 49 1
247.000000 -296.000000 65016.000000 12 44 1
248.000000 -296.000000 65017.000000 17 41 1
249.000000 -296.000000 65017.000000 23 41 1
250.000000 -296.000000 65019.000000 22 42 1
251.000000 -296.000000 65020.000000 22 49 1
252.000000 -296.000000 65020.000000 29 53 1
253.000000 -296.000000 65026.000000 37 51 1
254.000000 -296.000000 65027.000000 39 49 1
255.000000 -296.000000 65029.000000 42 51 3
256.000000 -296.000000 65029.000000 39 53 6
257.000000 -296.000000 65029.000000 36 56 3
258.000000 -296.000000 65030.000000 35 59 1
259.000000 -296.000000 65031.000000 34 56 1
260.000000 -296.000000 65032.000000 32 54 1
261.000000 -296.000000 65032.000000 31 53 1
262.000000 -296.000000 65033.000000 33 53 1
263.000000 -296.000000 65034.000000 35 47 1
264.000000 -296.000000 65034.000000 35 49 1
265.000000 -296.000000 65034.000000 35 49 1
266.000000 -296.000000 65035.000000 34 46 1
267.000000 -296.000000 65035.000000 34 45 1
268.000000 -296.000000 65035.000000 29 53 2
269.000000 -296.000000 65035.000000 25 48 2
270.000000 -296.000000 65035.000000 17 38 1
271.000000 -296.000000 65035.000000 9 20 1
272.000000 -296.000000 65035.000000 8 10 1
273.000000 -296.000000 65035.000000 7 9 4
274.000000 -296.000000 65035.000000 7 20 7
275.000000 -296.000000 65035.000000 7 16 4
276.000000 -296.000000 65035.000000 8 15 1
277.000000 -296.000000 65034.000000 9 15 1
278.000000 -296.000000 65034.000000 9 16 1
279.000000 -296.000000 65033.000000 9 13 4
280.000000 -296.000000 65033.000000 10 11 7
281.000000 -296.000000 65033.000000 11 16 4
282.000000 -296.000000 65033.000000 17 21 2
283.000000 -296.000000 65033.000000 23 37 1
284.000000 -296.000000 65033.000000 37 54 1
285.000000 -296.000000 65033.000000 51 55 1
286.000000 -296.000000 65033.000000 46 58 2
287.000000 -296.000000 65033.000000 42 56 1
288.000000 -296.000000 65033.000000 42 55 1
289.000000 -296.000000 65032.000000 42 56 1
290.000000 -296.000000 65032.000000 41 58 1
291.000000 -296.000000 65032.000000 40 52 1
292.000000 -296.000000 65032.000000 43 55 1
293.000000 -296.000000 65032.000000 46 58 1
294.000000 -296.000000 65032.000000 51 72 1
295.000000 -296.000000 65032.000000 57 80 3
296.000000 -296.000000 65031.000000 67 90 4
297.000000 -296.000000 65032.000000 78 91 2
298.000000 -296.000000 65032.000000 73 92 1
299.000000 -296.000000 65032.000000 69 92 1
246.000000 -297.000000 65014.000000 31 47 1
247.000000 -297.000000 65015.000000 20 45 1
248.000000 -297.000000 65015.000000 21 42 1
249.000000 -297.000000 65018.000000 22 42 1
250.000000 -297.000000 65020.000000 24 44 1
251.000000 -297.000000 65020.000000 26 48 1
252.000000 -297.000000 65020.000000 32 47 2
253.000000 -297.000000 65026.000000 37 46 1
254.000000 -297.000000 65027.000000 40 45 1
255.000000 -297.000000 65029.000000 43 45 6
256.000000 -297.000000 65029.000000 40 45 11
257.000000 -297.000000 65030.000000 38 45 6
258.000000 -297.000000 65031.000000 36 47 1
259.000000 -297.000000 65032.000000 34 50 1
260.000000 -297.000000 65032.000000 29 48 1
261.000000 -297.000000 65032.000000 25 46 1
262.000000 -297.000000 65033.000000 29 46 1
263.000000 -297.000000 65034.000000 34 46 1
264.000000 -297.000000 65035.000000 34 48 1
265.000000 -297.000000 65034.000000 34 50 1
266.000000 -297.000000 65035.000000 33 46 1
267.000000 -297.000000 65035.000000 32 44 1
268.000000 -297.000000 65034.000000 24 43 1
269.000000 -297.000000 65034.000000 17 43 1
270.000000 -297.000000 65035.000000 11 20 1
271.000000 -297.000000 65035.000000 5 2 1
272.000000 -297.000000 65035.000000 9 7 1
273.000000 -297.000000 65035.000000 14 10 7
274.000000 -297.000000 65035.000000 10 12 14
275.000000 -297.000000 65035.000000 6 14 7
276.000000 -297.000000 65035.000000 6 13 1
277.000000 -297.000000 65035.000000 6 13 1
278.000000 -297.000000 65034.000000 11 13 1
279.000000 -297.000000 65034.000000 17 14 1
280.000000 -297.000000 65033.000000 12 7 1
281.000000 -297.000000 65033.000000 8 4 2
282.000000 -297.000000 65033.000000 11 13 3
283.000000 -297.000000 65033.000000 15 23 2
284.000000 -297.000000 65033.000000 26 39 1
285.000000 -297.000000 65033.000000 37 55 1
286.000000 -297.000000 65033.000000 37 54 1
287.000000 -297.000000 65033.000000 38 53 1
288.000000 -297.000000 65033.000000 41 54 1
289.000000 -297.000000 65032.000000 45 55 1
290.000000 -297.000000 65032.000000 42 53 1
291.000000 -297.000000 65032.000000 39 51 1
292.000000 -297.000000 65032.000000 41 54 1
293.000000 -297.000000 65032.000000 43 59 1
294.000000 -297.000000 65032.000000 49 68 2
295.000000 -297.000000 65032.000000 56 80 5
296.000000 -297.000000 65031.000000 64 88 8
297.000000 -297.000000 65032.000000 73 89 4
298.000000 -297.000000 65032.000000 71 90 1
246.000000 -298.000000 65015.000000 36 46 1
247.000000 -298.000000 65017.000000 28 44 1
248.000000 -298.000000 65018.000000 25 43 1
249.000000 -298.000000 65019.000000 22 43 1
250.000000 -298.000000 65020.000000 26 46 1
251.000000 -298.000000 65020.000000 31 48 1
252.000000 -298.000000 65022.000000 34 50 1
253.000000 -298.000000 65025.000000 38 42 1
254.000000 -298.000000 65028.000000 41 36 1
255.000000 -298.000000 65029.000000 44 30 3
256.000000 -298.000000 65029.000000 42 25 6
257.000000 -298.000000 65030.000000 41 28 3
258.000000 -298.000000 65031.000000 37 32 1
259.000000 -298.000000 65032.000000 34 46 1
260.000000 -298.000000 65032.000000 26 42 1
261.000000 -298.000000 65032.000000 19 44 1
262.000000 -298.000000 65033.000000 26 50 1
263.000000 -298.000000 65035.000000 33 47 1
264.000000 -298.000000 65035.000000 33 43 1
265.000000 -298.000000 65035.000000 34 44 1
266.000000 -298.000000 65035.000000 32 46 1
267.000000 -298.000000 65035.000000 30 45 1
268.000000 -298.000000 65035.000000 20 39 1
269.000000 -298.000000 65035.000000 10 28 1
270.000000 -298.000000 65035.000000 6 3 2
271.000000 -298.000000 65035.000000 2 3 2
272.000000 -298.000000 65035.000000 11 4 2
273.000000 -298.000000 65035.000000 21 7 5
274.000000 -298.000000 65035.000000 13 12 7
275.000000 -298.000000 65035.000000 5 8 4
276.000000 -298.000000 65035.000000 4 5 1
277.000000 -298.000000 65035.000000 4 7 1
278.000000 -298.000000 65034.000000 14 10 1
279.000000 -298.000000 65034.000000 25 11 1
280.000000 -298.000000 65034.000000 15 4 1
281.000000 -298.000000 65034.000000 5 4 1
282.000000 -298.000000 65034.000000 6 5 2
283.000000 -298.000000 65034.000000 7 8 8
284.000000 -298.000000 65034.000000 15 12 15
285.000000 -298.000000 65033.000000 24 38 16
286.000000 -298.000000 65033.000000 29 51 17
287.000000 -298.000000 65033.000000 34 51 9
288.000000 -298.000000 65032.000000 41 51 1
289.000000 -298.000000 65033.000000 49 50 1
290.000000 -298.000000 65032.000000 43 49 1
291.000000 -298.000000 65032.000000 38 51 1
292.000000 -298.000000 65032.000000 39 54 1
293.000000 -298.000000 65032.000000 41 63 1
294.000000 -298.000000 65032.000000 48 65 1
295.000000 -298.000000 65032.000000 55 83 3
296.000000 -298.000000 65032.000000 61 86 5
297.000000 -298.000000 65029.000000 68 89 3
298.000000 -298.000000 65028.000000 69 84 1
299.000000 -298.000000 65026.000000 71 85 1
300.000000 -298.000000 65026.000000 74 87 1
245.000000 -299.000000 65014.000000 41 47 1
246.000000 -299.000000 65015.000000 32 44 1
247.000000 -299.000000 65016.000000 23 39 1
248.000000 -299.000000 65019.000000 20 44 1
249.000000 -299.000000 65019.000000 17 44 1
250.000000 -299.000000 65020.000000 23 46 1
251.000000 -299.000000 65020.000000 29 49 1
252.000000 -299.000000 65022.000000 34 44 1
253.000000 -299.000000 65025.000000 40 39 1
254.000000 -299.000000 65028.000000 43 31 1
255.000000 -299.000000 65029.000000 47 17 1
256.000000 -299.000000 65029.000000 46 23 1
257.000000 -299.000000 65030.000000 45 21 1
258.000000 -299.000000 65032.000000 42 28 1
259.000000 -299.000000 65032.000000 38 42 1
260.000000 -299.000000 65032.000000 32 42 1
261.000000 -299.000000 65034.000000 26 42 1
262.000000 -299.000000 65034.000000 28 47 1
263.000000 -299.000000 65035.000000 31 49 1
264.000000 -299.000000 65035.000000 32 43 1
265.000000 -299.000000 65035.000000 33 41 1
266.000000 -299.000000 65036.000000 30 45 1
267.000000 -299.000000 65037.000000 27 46 1
268.000000 -299.000000 65037.000000 17 30 1
269.000000 -299.000000 65037.000000 8 14 2
270.000000 -299.000000 65036.000000 5 3 3
271.000000 -299.000000 65036.000000 2 3 3
272.000000 -299.000000 65036.000000 6 4 4
273.000000 -299.000000 65036.000000 11 5 2
274.000000 -299.000000 65035.000000 7 4 1
275.000000 -299.000000 65035.000000 3 3 1
276.000000 -299.000000 65035.000000 3 3 1
277.000000 -299.000000 65035.000000 2 4 1
278.000000 -299.000000 65035.000000 8 6 1
279.000000 -299.000000 65034.000000 14 9 1
280.000000 -299.000000 65034.000000 9 3 1
281.000000 -299.000000 65034.000000 4 5 1
282.000000 -299.000000 65035.000000 4 4 1
283.000000 -299.000000 65034.000000 4 4 15
284.000000 -299.000000 65034.000000 10 10 29
285.000000 -299.000000 65033.000000 16 22 31
286.000000 -299.000000 65033.000000 22 38 33
287.000000 -299.000000 65033.000000 27 54 17
288.000000 -299.000000 65033.000000 34 50 1
289.000000 -299.000000 65033.000000 41 47 1
290.000000 -299.000000 65033.000000 40 52 2
291.000000 -299.000000 65034.000000 40 58 1
292.000000 -299.000000 65034.000000 41 55 1
293.000000 -299.000000 65033.000000 43 67 1
294.000000 -299.000000 65033.000000 50 69 1
295.000000 -299.000000 65032.000000 57 87 2
296.000000 -299.000000 65032.000000 65 87 3
297.000000 -299.000000 65029.000000 74 90 2
298.000000 -299.000000 65027.000000 73 84 1
299.000000 -299.000000 65027.000000 71 85 1
300.000000 -299.000000 65026.000000 74 85 1
244.000000 -300.000000 65013.000000 47 49 1
245.000000 -300.000000 65015.000000 39 44 1
246.000000 -300.000000 65015.000000 28 42 1
247.000000 -300.000000 65015.000000 18 43 1
248.000000 -300.000000 65019.000000 15 45 1
249.000000 -300.000000 65020.000000 12 46 1
250.000000 -300.000000 65020.000000 20 47 1
251.000000 -300.000000 65021.000000 28 48 1
252.000000 -300.000000 65023.000000 35 39 1
253.000000 -300.000000 65026.000000 42 37 1
254.000000 -300.000000 65028.000000 46 26 1
255.000000 -300.000000 65029.000000 50 24 1
256.000000 -300.000000 65029.000000 50 22 1
257.000000 -300.000000 65032.000000 50 23 1
258.000000 -300.000000 65032.000000 46 25 1
259.000000 -300.000000 65032.000000 43 33 1
260.000000 -300.000000 65033.000000 38 41 1
261.000000 -300.000000 65034.000000 34 42 1
262.000000 -300.000000 65035.000000 31 44 1
263.000000 -300.000000 65035.000000 29 44 1
264.000000 -300.000000 65035.000000 30 44 1
265.000000 -300.000000 65035.000000 32 44 3
266.000000 -300.000000 65036.000000 28 45 5
267.000000 -300.000000 65036.000000 24 36 3
268.000000 -300.000000 65037.000000 15 22 1
269.000000 -300.000000 65036.000000 7 11 1
270.000000 -300.000000 65035.000000 5 3 2
271.000000 -300.000000 65036.000000 3 3 2
272.000000 -300.000000 65035.000000 2 1 2
273.000000 -300.000000 65035.000000 1 5 1
274.000000 -300.000000 65035.000000 1 2 1
275.000000 -300.000000 65035.000000 2 1 1
276.000000 -300.000000 65035.000000 1 1 1
277.000000 -300.000000 65035.000000 1 4 1
278.000000 -300.000000 65034.000000 2 3 1
279.000000 -300.000000 65034.000000 4 3 1
280.000000 -300.000000 65033.000000 4 3 1
281.000000 -300.000000 65034.000000 4 3 1
282.000000 -300.000000 65035.000000 2 4 1
283.000000 -300.000000 65034.000000 1 6 8
284.000000 -300.000000 65034.000000 5 8 15
285.000000 -300.000000 65034.000000 9 15 20
286.000000 -300.000000 65034.000000 15 18 26
287.000000 -300.000000 65034.000000 21 30 13
288.000000 -300.000000 65033.000000 27 42 1
289.000000 -300.000000 65033.000000 34 46 12
290.000000 -300.000000 65033.000000 38 63 23
291.000000 -300.000000 65033.000000 42 57 12
292.000000 -300.000000 65032.000000 44 56 1
293.000000 -300.000000 65032.000000 46 61 1
294.000000 -300.000000 65032.000000 52 73 1
295.000000 -300.000000 65032.000000 59 85 3
296.000000 -300.000000 65032.000000 70 88 6
297.000000 -300.000000 65029.000000 81 86 3
298.000000 -300.000000 65028.000000 76 85 1
299.000000 -300.000000 65027.000000 72 85 1
300.000000 -300.000000 65027.000000 75 86 1
244.000000 -301.000000 65013.000000 48 46 2
245.000000 -301.000000 65015.000000 39 42 1
246.000000 -301.000000 65015.000000 30 43 1
247.000000 -301.000000 65017.000000 21 49 1
248.000000 -301.000000 65019.000000 18 49 1
249.000000 -301.000000 65020.000000 15 50 1
250.000000 -301.000000 65020.000000 21 47 1
251.000000 -301.000000 65021.000000 28 47 1
252.000000 -301.000000 65023.000000 36 37 1
253.000000 -301.000000 65025.000000 43 35 1
254.000000 -301.000000 65028.000000 48 36 2
255.000000 -301.000000 65029.000000 54 37 2
256.000000 -301.000000 65029.000000 52 33 2
257.000000 -301.000000 65032.000000 51 30 1
258.000000 -301.000000 65032.000000 47 24 1
259.000000 -301.000000 65032.000000 42 26 1
260.000000 -301.000000 65035.000000 38 37 1
261.000000 -301.000000 65035.000000 34 35 1
262.000000 -301.000000 65035.000000 32 45 1
263.000000 -301.000000 65035.000000 31 46 1
264.000000 -301.000000 65035.000000 31 42 1
265.000000 -301.000000 65035.000000 32 37 5
266.000000 -301.000000 65036.000000 24 31 9
267.000000 -301.000000 65037.000000 16 26 5
268.000000 -301.000000 65037.000000 13 16 1
269.000000 -301.000000 65037.000000 10 8 1
270.000000 -301.000000 65036.000000 8 6 1
271.000000 -301.000000 65036.000000 6 5 1
272.000000 -301.000000 65036.000000 7 5 1
273.000000 -301.000000 65035.000000 9 5 1
274.000000 -301.000000 65035.000000 5 6 1
275.000000 -301.000000 65035.000000 2 7 1
276.000000 -301.000000 65035.000000 2 2 1
277.000000 -301.000000 65035.000000 1 4 1
278.000000 -301.000000 65035.000000 5 6 1
279.000000 -301.000000 65034.000000 9 10 1
280.000000 -301.000000 65034.000000 9 6 1
281.000000 -301.000000 65035.000000 9 1 1
282.000000 -301.000000 65035.000000 10 7 1
283.000000 -301.000000 65035.000000 11 14 1
284.000000 -301.000000 65034.000000 12 13 1
285.000000 -301.000000 65034.000000 14 12 10
286.000000 -301.000000 65035.000000 13 15 19
287.000000 -301.000000 65035.000000 12 21 10
288.000000 -301.000000 65034.000000 18 31 1
289.000000 -301.000000 65034.000000 25 46 23
290.000000 -301.000000 65033.000000 29 51 45
291.000000 -301.000000 65034.000000 34 56 23
292.000000 -301.000000 65033.000000 37 54 1
293.000000 -301.000000 65033.000000 41 50 1
294.000000 -301.000000 65032.000000 47 63 1
295.000000 -301.000000 65032.000000 54 84 5
296.000000 -301.000000 65032.000000 63 83 10
297.000000 -301.000000 65029.000000 72 82 5
298.000000 -301.000000 65028.000000 71 86 1
299.000000 -301.000000 65027.000000 71 86 1
300.000000 -301.000000 65027.000000 73 87 1
301.000000 -301.000000 65027.000000 76 90 6
244.000000 -302.000000 65013.000000 48 44 1
245.000000 -302.000000 65015.000000 39 44 1
246.000000 -302.000000 65016.000000 32 44 1
247.000000 -302.000000 65017.000000 25 49 1
248.000000 -302.000000 65020.000000 21 49 1
249.000000 -302.000000 65020.000000 18 48 1
250.000000 -302.000000 65020.000000 23 47 1
251.000000 -302.000000 65021.000000 29 45 1
252.000000 -302.000000 65023.000000 37 36 1
253.000000 -302.000000 65023.000000 45 37 1
254.000000 -302.000000 65028.000000 51 39 1
255.000000 -302.000000 65029.000000 58 40 1
256.000000 -302.000000 65030.000000 55 42 1
257.000000 -302.000000 65031.000000 53 32 1
258.000000 -302.000000 65032.000000 47 24 1
259.000000 -302.000000 65032.000000 42 27 1
260.000000 -302.000000 65032.000000 38 34 1
261.000000 -302.000000 65035.000000 34 40 1
262.000000 -302.000000 65035.000000 33 46 1
263.000000 -302.000000 65035.000000 33 46 1
264.000000 -302.000000 65035.000000 32 41 1
265.000000 -302.000000 65036.000000 32 31 3
266.000000 -302.000000 65037.000000 20 14 5
267.000000 -302.000000 65037.000000 9 12 3
268.000000 -302.000000 65037.000000 11 10 1
269.000000 -302.000000 65038.000000 14 10 1
270.000000 -302.000000 65036.000000 12 10 2
271.000000 -302.000000 65036.000000 10 12 2
272.000000 -302.000000 65036.000000 13 14 2
273.000000 -302.000000 65035.000000 17 13 1
274.000000 -302.000000 65035.000000 10 12 1
275.000000 -302.000000 65035.000000 3 10 1
276.000000 -302.000000 65035.000000 2 3 1
277.000000 -302.000000 65035.000000 2 6 1
278.000000 -302.000000 65035.000000 8 9 1
279.000000 -302.000000 65034.000000 15 10 1
280.000000 -302.000000 65034.000000 14 12 1
281.000000 -302.000000 65034.000000 14 18 1
282.000000 -302.000000 65035.000000 17 25 1
283.000000 -302.000000 65034.000000 21 23 1
284.000000 -302.000000 65034.000000 20 22 1
285.000000 -302.000000 65034.000000 19 17 5
286.000000 -302.000000 65035.000000 11 12 10
287.000000 -302.000000 65035.000000 3 14 5
288.000000 -302.000000 65034.000000 10 17 1
289.000000 -302.000000 65034.000000 17 33 12
290.000000 -302.000000 65034.000000 21 49 23
291.000000 -302.000000 65034.000000 26 51 12
292.000000 -302.000000 65033.000000 31 53 1
293.000000 -302.000000 65033.000000 36 53 1
294.000000 -302.000000 65032.000000 43 53 1
295.000000 -302.000000 65032.000000 50 67 3
296.000000 -302.000000 65032.000000 56 82 5
297.000000 -302.000000 65029.000000 63 84 3
298.000000 -302.000000 65028.000000 66 88 1
299.000000 -302.000000 65027.000000 70 88 1
300.000000 -302.000000 65027.000000 71 89 1
301.000000 -302.000000 65027.000000 73 92 3
243.000000 -303.000000 65013.000000 58 55 4
244.000000 -303.000000 65013.000000 49 52 1
245.000000 -303.000000 65014.000000 40 50 1
246.000000 -303.000000 65014.000000 29 50 1
247.000000 -303.000000 65017.000000 18 50 1
248.000000 -303.000000 65020.000000 18 48 1
249.000000 -303.000000 65020.000000 18 46 1
250.000000 -303.000000 65020.000000 24 46 1
251.000000 -303.000000 65023.000000 31 44 1
252.000000 -303.000000 65023.000000 38 42 1
253.000000 -303.000000 65024.000000 45 40 1
254.000000 -303.000000 65028.000000 54 40 1
255.000000 -303.000000 65029.000000 63 41 1
256.000000 -303.000000 65030.000000 58 42 1
257.000000 -303.000000 65031.000000 52 35 1
258.000000 -303.000000 65032.000000 46 32 1
259.000000 -303.000000 65032.000000 41 29 1
260.000000 -303.000000 65032.000000 37 38 1
261.000000 -303.000000 65034.000000 33 48 1
262.000000 -303.000000 65035.000000 30 47 1
263.000000 -303.000000 65035.000000 28 46 1
264.000000 -303.000000 65036.000000 27 39 1
265.000000 -303.000000 65036.000000 26 25 1
266.000000 -303.000000 65037.000000 19 12 1
267.000000 -303.000000 65038.000000 11 2 1
268.000000 -303.000000 65038.000000 13 10 1
269.000000 -303.000000 65037.000000 15 19 2
270.000000 -303.000000 65036.000000 14 20 3
271.000000 -303.000000 65036.000000 13 22 3
272.000000 -303.000000 65035.000000 23 26 4
273.000000 -303.000000 65035.000000 34 30 2
274.000000 -303.000000 65035.000000 21 17 1
275.000000 -303.000000 65035.000000 8 14 1
276.000000 -303.000000 65035.000000 6 3 1
277.000000 -303.000000 65035.000000 5 8 1
278.000000 -303.000000 65035.000000 19 24 1
279.000000 -303.000000 65035.000000 34 40 1
280.000000 -303.000000 65034.000000 28 37 1
281.000000 -303.000000 65034.000000 23 34 1
282.000000 -303.000000 65034.000000 29 34 1
283.000000 -303.000000 65034.000000 36 34 1
284.000000 -303.000000 65034.000000 31 34 1
285.000000 -303.000000 65034.000000 26 34 1
286.000000 -303.000000 65035.000000 19 20 1
287.000000 -303.000000 65035.000000 12 6 1
288.000000 -303.000000 65034.000000 12 6 1
289.000000 -303.000000 65034.000000 13 6 1
290.000000 -303.000000 65034.000000 15 26 1
291.000000 -303.000000 65034.000000 16 46 1
292.000000 -303.000000 65032.000000 20 50 1
293.000000 -303.000000 65032.000000 24 55 1
294.000000 -303.000000 65032.000000 35 52 2
295.000000 -303.000000 65031.000000 46 49 1
296.000000 -303.000000 65031.000000 54 82 1
297.000000 -303.000000 65029.000000 63 87 1
298.000000 -303.000000 65028.000000 66 90 1
299.000000 -303.000000 65027.000000 69 92 1
300.000000 -303.000000 65028.000000 71 92 1
301.000000 -303.000000 65028.000000 73 96 1
302.000000 -303.000000 65028.000000 71 92 1
243.000000 -304.000000 65013.000000 59 53 2
244.000000 -304.000000 65013.000000 50 52 1
245.000000 -304.000000 65014.000000 41 52 1
246.000000 -304.000000 65015.000000 26 52 1
247.000000 -304.000000 65016.000000 12 49 1
248.000000 -304.000000 65020.000000 15 47 1
249.000000 -304.000000 65020.000000 19 46 1
250.000000 -304.000000 65021.000000 26 49 1
251.000000 -304.000000 65023.000000 33 46 1
252.000000 -304.000000 65023.000000 39 43 1
253.000000 -304.000000 65024.000000 45 42 1
254.000000 -304.000000 65027.000000 57 42 1
255.000000 -304.000000 65029.000000 69 42 1
256.000000 -304.000000 65031.000000 60 42 1
257.000000 -304.000000 65032.000000 52 35 1
258.000000 -304.000000 65032.000000 46 35 1
259.000000 -304.000000 65032.000000 40 38 1
260.000000 -304.000000 65033.000000 36 42 1
261.000000 -304.000000 65035.000000 33 47 1
262.000000 -304.000000 65035.000000 28 49 1
263.000000 -304.000000 65035.000000 23 46 1
264.000000 -304.000000 65036.000000 22 37 1
265.000000 -304.000000 65037.000000 21 28 1
266.000000 -304.000000 65038.000000 17 10 1
267.000000 -304.000000 65038.000000 14 19 1
268.000000 -304.000000 65038.000000 15 29 1
269.000000 -304.000000 65038.000000 17 25 1
270.000000 -304.000000 65035.000000 16 21 2
271.000000 -304.000000 65036.000000 16 25 9
272.000000 -304.000000 65035.000000 34 39 16
273.000000 -304.000000 65035.000000 52 30 8
274.000000 -304.000000 65035.000000 32 22 1
275.000000 -304.000000 65035.000000 13 13 1
276.000000 -304.000000 65035.000000 11 4 1
277.000000 -304.000000 65035.000000 9 7 2
278.000000 -304.000000 65035.000000 31 47 3
279.000000 -304.000000 65035.000000 53 48 6
280.000000 -304.000000 65034.000000 43 49 9
281.000000 -304.000000 65034.000000 33 47 5
282.000000 -304.000000 65034.000000 42 46 1
283.000000 -304.000000 65034.000000 51 45 5
284.000000 -304.000000 65034.000000 42 44 10
285.000000 -304.000000 65035.000000 34 44 5
286.000000 -304.000000 65035.000000 27 44 1
287.000000 -304.000000 65035.000000 21 24 1
288.000000 -304.000000 65034.000000 15 4 1
289.000000 -304.000000 65034.000000 10 4 1
290.000000 -304.000000 65033.000000 8 4 1
291.000000 -304.000000 65034.000000 7 7 1
292.000000 -304.000000 65032.000000 10 10 1
293.000000 -304.000000 65032.000000 13 25 1
294.000000 -304.000000 65032.000000 28 40 1
295.000000 -304.000000 65032.000000 43 67 1
296.000000 -304.000000 65030.000000 53 83 1
297.000000 -304.000000 65030.000000 63 88 1
298.000000 -304.000000 65028.000000 66 92 1
299.000000 -304.000000 65026.000000 69 92 1
300.000000 -304.000000 65027.000000 71 93 1
301.000000 -304.000000 65027.000000 74 91 1
302.000000 -304.000000 65028.000000 73 89 1
242.000000 -305.000000 65012.000000 60 52 1
243.000000 -305.000000 65013.000000 56 51 1
244.000000 -305.000000 65013.000000 47 51 1
245.000000 -305.000000 65014.000000 39 47 1
246.000000 -305.000000 65014.000000 27 44 1
247.000000 -305.000000 65016.000000 15 42 1
248.000000 -305.000000 65020.000000 17 45 1
249.000000 -305.000000 65020.000000 20 47 1
250.000000 -305.000000 65021.000000 27 49 1
251.000000 -305.000000 65022.000000 33 49 1
252.000000 -305.000000 65023.000000 39 42 1
253.000000 -305.000000 65023.000000 45 34 1
254.000000 -305.000000 65024.000000 53 36 1
255.000000 -305.000000 65030.000000 62 38 1
256.000000 -305.000000 65032.000000 57 36 1
257.000000 -305.000000 65032.000000 52 35 1
258.000000 -305.000000 65032.000000 46 36 1
259.000000 -305.000000 65032.000000 39 38 1
260.000000 -305.000000 65035.000000 35 41 1
261.000000 -305.000000 65035.000000 31 46 1
262.000000 -305.000000 65035.000000 29 46 1
263.000000 -305.000000 65036.000000 28 46 1
264.000000 -305.000000 65037.000000 28 42 1
265.000000 -305.000000 65038.000000 29 32 1
266.000000 -305.000000 65038.000000 23 31 1
267.000000 -305.000000 65038.000000 17 30 1
268.000000 -305.000000 65038.000000 14 30 1
269.000000 -305.000000 65038.000000 11 31 1
270.000000 -305.000000 65035.000000 10 29 1
271.000000 -305.000000 65036.000000 10 28 15
272.000000 -305.000000 65035.000000 23 32 29
273.000000 -305.000000 65035.000000 36 48 15
274.000000 -305.000000 65035.000000 24 28 1
275.000000 -305.000000 65035.000000 13 13 1
276.000000 -305.000000 65035.000000 10 6 1
277.000000 -305.000000 65035.000000 6 7 3
278.000000 -305.000000 65035.000000 23 53 5
279.000000 -305.000000 65034.000000 41 64 11
280.000000 -305.000000 65034.000000 31 56 18
281.000000 -305.000000 65034.000000 21 49 9
282.000000 -305.000000 65035.000000 28 50 1
283.000000 -305.000000 65035.000000 35 51 10
284.000000 -305.000000 65035.000000 34 45 19
285.000000 -305.000000 65035.000000 34 43 10
286.000000 -305.000000 65035.000000 32 45 1
287.000000 -305.000000 65035.000000 31 51 1
288.000000 -305.000000 65035.000000 25 30 1
289.000000 -305.000000 65034.000000 19 9 1
290.000000 -305.000000 65034.000000 11 9 1
291.000000 -305.000000 65034.000000 4 9 1
292.000000 -305.000000 65032.000000 10 7 1
293.000000 -305.000000 65032.000000 17 21 1
294.000000 -305.000000 65032.000000 33 56 1
