ply
format ascii 1.0
element vertex 1412
property float x
property float y
property float z
property uchar blue
property uchar green
property uchar red
end_header
169.913 294.616 46.3569 23 152 186
169.915 295.6 46.5366 25 153 187
169.919 296.404 47.7001 28 154 187
169.92 297.388 47.8799 18 152 187
169.922 298.371 48.0596 9 150 187
169.924 299.355 48.2394 5 150 187
169.928 300.159 49.4029 1 151 186
169.936 300.604 52.5337 5 152 185
169.94 301.407 53.6972 8 153 187
169.94 302.571 52.8933 10 154 190
169.943 303.375 54.0568 11 156 192
169.947 304.179 55.2202 13 156 194
169.949 305.163 55.4 16 157 195
169.953 305.967 56.5635 12 162 197
169.957 306.771 57.7269 9 161 198
169.959 307.754 57.9067 27 171 199
169.961 308.738 58.0865 45 134 159
169.962 309.722 58.2662 34 86 120
169.964 310.705 58.446 23 1 61
169.968 311.509 59.6094 23 1 2
169.97 312.493 59.7892 23 1 2
169.972 313.477 59.969 15 1 2
169.974 314.46 60.1487 7 1 3
169.976 315.444 60.3285 24 1 4
169.979 316.248 61.492 41 1 3
169.981 317.232 61.6717 73 1 3
169.985 318.036 62.8352 105 5 27
169.987 319.019 63.015 109 118 52
169.991 319.823 64.1785 113 165 135
169.993 320.807 64.3582 88 196 219
169.995 321.791 64.538 64 194 225
169.996 322.774 64.7178 60 191 231
169.998 323.758 64.8975 56 189 227
169.998 324.922 64.0936 33 185 223
169.998 326.085 63.2896 11 173 219
170 327.069 63.4694 15 175 216
169.999 328.232 62.6654 19 166 212
170.001 329.216 62.8452 21 165 209
170.001 330.38 62.0413 23 164 207
170.003 331.363 62.221 34 166 206
170.005 332.347 62.4008 46 167 206
170.007 333.331 62.5805 47 172 206
170.008 334.314 62.7603 49 177 208
170.01 335.298 62.9401 26 136 210
170.008 336.641 61.1524 2 49 125
170.01 337.625 61.3322 3 25 40
170.012 338.609 61.5119 5 1 20
170.013 339.592 61.6917 8 3 1
170.017 340.396 62.8552 11 5 10
170.019 341.38 63.035 16 9 20
170.019 342.544 62.231 21 15 19
170.021 343.527 62.4108 21 11 18
170.023 344.511 62.5905 22 10 15
170.024 345.495 62.7703 12 8 13
170.026 346.478 62.95 3 7 8
170.028 347.462 63.1298 29 4 3
170.03 348.446 63.3096 55 1 2
170.026 357.933 55.8943 5 158 197
170.028 358.917 56.0741 3 158 195
170.028 360.08 55.2701 2 148 194
170.028 361.244 54.4662 1 150 194
170.027 362.407 53.6622 1 153 195
170.027 363.571 52.8583 1 151 196
170.029 364.555 53.0381 1 149 195
170.868 285.951 32.5727 9 146 177
170.872 286.755 33.7361 2 145 176
170.878 287.38 35.8833 1 144 175
170.884 288.004 38.0305 1 146 176
170.886 288.987 38.2103 6 148 176
170.89 289.791 39.3737 12 147 178
170.893 290.595 40.5372 10 146 180
170.897 291.399 41.7007 9 146 181
170.901 292.203 42.8641 11 147 183
170.903 293.187 43.0439 14 147 183
170.909 293.811 45.1911 8 147 183
170.913 294.615 46.3545 3 148 184
170.915 295.599 46.5343 2 149 185
170.919 296.403 47.6978 2 148 184
170.92 297.386 47.8775 1 148 184
170.922 298.37 48.0573 1 149 184
170.924 299.354 48.2371 1 150 183
170.932 299.798 51.3679 1 148 182
170.936 300.602 52.5314 6 147 182
170.94 301.406 53.6949 12 151 185
170.942 302.39 53.8746 7 154 188
170.946 303.194 55.0381 2 155 189
170.947 304.178 55.2179 2 157 190
170.951 304.981 56.3814 3 155 192
170.955 305.785 57.5448 3 161 194
170.959 306.589 58.7083 4 160 194
170.961 307.573 58.8881 2 159 194
170.961 308.737 58.0841 1 138 171
170.965 309.54 59.2476 1 78 147
170.968 310.344 60.411 1 24 96
170.97 311.328 60.5908 1 1 46
170.972 312.312 60.7706 1 1 29
170.974 313.296 60.9503 1 1 13
170.976 314.279 61.1301 1 1 15
170.978 315.263 61.3099 1 1 17
170.982 316.067 62.4733 1 1 34
170.985 316.871 63.6368 30 1 52
170.987 317.854 63.8166 59 58 85
170.989 318.838 63.9963 60 108 118
170.991 319.822 64.1761 62 163 166
170.993 320.806 64.3559 64 190 215
170.995 321.789 64.5356 67 188 218
170.996 322.773 64.7154 51 186 221
170.998 323.757 64.8952 35 186 221
171 324.741 65.0749 28 186 221
171 325.904 64.271 21 176 218
171.002 326.888 64.4507 23 177 215
171.001 328.051 63.6468 26 169 212
171.001 329.215 62.8428 28 168 209
171.001 330.378 62.0389 30 167 207
171.003 331.362 62.2187 44 167 206
171.005 332.345 62.3984 58 167 206
171.007 333.329 62.5782 68 167 206
171.008 334.313 62.7579 78 172 209
171.01 335.297 62.9377 41 177 213
171.012 336.28 63.1175 4 118 168
171.01 337.624 61.3298 2 60 123
171.012 338.607 61.5096 1 31 85
171.013 339.591 61.6893 1 2 48
171.015 340.575 61.8691 1 3 29
171.019 341.379 63.0326 6 4 11
171.021 342.362 63.2123 11 8 10
171.023 343.346 63.3921 10 12 9
171.023 344.509 62.5882 9 10 8
171.022 345.673 61.7842 7 9 7
171.026 346.477 62.9477 5 8 4
171.028 347.461 63.1275 3 7 2
171.03 348.444 63.3072 2 1 2
171.026 357.932 55.892 9 161 208
171.028 358.916 56.0717 5 160 208
171.028 360.079 55.2678 1 160 208
171.025 361.422 53.4801 1 161 208
171.027 362.406 53.6599 1 159 202
171.027 363.569 52.856 1 157 197
171.029 364.553 53.0357 1 156 196
171.866 284.966 32.3905 14 130 166
171.868 285.95 32.5703 8 127 173
171.876 286.394 35.7012 1 124 169
171.88 287.198 36.8647 7 125 165
171.884 288.002 38.0281 12 126 165
171.888 288.806 39.1916 22 136 166
171.892 289.61 40.3551 33 147 171
171.893 290.594 40.5348 26 147 176
171.899 291.218 42.682 19 147 178
171.901 292.202 42.8618 14 146 180
171.907 292.826 45.009 9 145 180
171.911 293.63 46.1724 7 145 181
171.913 294.614 46.3522 6 146 182
171.917 295.418 47.5157 4 143 183
171.919 296.401 47.6954 2 140 182
171.92 297.385 47.8752 1 139 182
171.924 298.189 49.0387 1 139 181
171.926 299.173 49.2184 1 141 180
171.932 299.797 51.3656 1 144 179
171.938 300.421 53.5128 4 145 179
171.942 301.225 54.6762 7 150 182
171.944 302.209 54.856 4 154 186
171.946 303.192 55.0358 2 154 186
171.949 303.996 56.1992 2 154 186
171.951 304.98 56.379 2 154 188
171.955 305.784 57.5425 2 153 191
171.959 306.588 58.7059 2 152 190
171.961 307.572 58.8857 3 147 190
171.963 308.555 59.0655 5 142 182
171.971 309 62.1963 3 105 175
171.973 309.983 62.3761 2 47 132
171.974 310.967 62.5559 1 24 90
171.978 311.771 63.7194 1 1 57
171.98 312.755 63.8991 1 1 25
171.982 313.738 64.0789 1 1 27
171.982 314.902 63.2749 1 1 30
171.984 315.886 63.4547 1 2 65
171.987 316.69 64.6182 31 56 101
171.989 317.673 64.798 60 111 143
171.989 318.837 63.994 53 136 185
171.993 319.641 65.1575 47 162 198
171.995 320.624 65.3372 52 184 211
171.995 321.788 64.5333 58 180 211
171.996 322.771 64.713 51 180 211
171.998 323.755 64.8928 44 180 215
172 324.739 65.0726 31 179 220
172.002 325.723 65.2523 19 179 217
172.002 326.886 64.4484 20 179 214
172.001 328.05 63.6444 21 172 211
172.001 329.213 62.8405 22 168 209
172.003 330.197 63.0203 22 168 208
172.005 331.181 63.2 32 168 207
172.007 332.164 63.3798 42 168 206
172.009 333.148 63.5595 45 167 206
172.01 334.132 63.7393 47 167 211
172.012 335.115 63.9191 34 170 216
172.012 336.279 63.1151 21 173 211
172.012 337.442 62.3112 16 129 207
172.012 338.606 61.5073 12 86 151
172.013 339.59 61.687 6 43 95
172.017 340.393 62.8505 1 1 48
172.019 341.377 63.0302 3 1 2
172.021 342.361 63.21 6 1 1
172.023 343.345 63.3898 5 1 1
172.025 344.328 63.5695 5 1 1
172.022 345.672 61.7819 4 1 1
172.024 346.655 61.9616 3 1 1
172.028 347.459 63.1251 2 1 1
172.028 357.751 56.8733 47 181 219
172.028 358.914 56.0694 46 181 222
172.03 359.898 56.2491 46 181 222
172.027 361.241 54.4615 23 170 222
172.025 362.584 52.6738 1 159 210
172.027 363.568 52.8536 1 158 199
172.029 364.552 53.0334 1 158 198
172.031 365.535 53.2131 1 157 197
172.864 283.981 32.2084 6 122 158
172.866 284.965 32.3882 12 123 161
172.87 285.769 33.5517 6 124 164
172.876 286.393 35.6988 1 120 163
172.882 287.017 37.846 12 117 163
172.886 287.821 39.0095 24 115 162
172.888 288.805 39.1893 39 113 162
172.894 289.429 41.3364 54 120 166
172.895 290.413 41.5162 42 127 171
172.899 291.217 42.6797 30 136 173
172.903 292.021 43.8431 17 145 175
172.909 292.645 45.9903 4 140 176
172.911 293.628 46.1701 7 136 177
172.915 294.432 47.3335 10 139 178
172.917 295.416 47.5133 6 142 179
172.919 296.4 47.6931 3 141 179
172.922 297.204 48.8565 2 140 178
172.926 298.008 50.02 1 140 176
172.928 298.991 50.1998 1 140 174
172.936 299.436 53.3307 2 142 175
172.94 300.24 54.4941 2 144 175
172.942 301.223 54.6739 2 149 176
172.944 302.207 54.8537 2 154 177
172.946 303.191 55.0334 2 152 179
172.949 303.995 56.1969 1 150 181
172.953 304.799 57.3604 1 149 182
172.957 305.603 58.5238 1 149 182
172.961 306.407 59.6873 1 145 184
172.963 307.39 59.867 5 142 185
172.969 308.014 62.0142 9 142 179
172.971 308.998 62.194 6 132 173
172.973 309.982 62.3738 3 120 151
172.974 310.966 62.5535 2 109 129
172.978 311.77 63.717 1 93 112
172.98 312.753 63.8968 1 77 96
172.982 313.737 64.0765 1 81 97
172.984 314.721 64.2563 1 86 97
172.986 315.704 64.4361 2 121 124
172.987 316.688 64.6158 32 157 151
172.989 317.672 64.7956 62 173 178
172.991 318.656 64.9754 47 190 204
172.995 319.46 66.1388 32 184 207
172.995 320.623 65.3349 40 179 209
172.997 321.607 65.5147 49 178 209
172.998 322.59 65.6944 51 174 209
173 323.574 65.8742 54 176 212
173.002 324.558 66.054 35 179 216
173.002 325.721 65.25 17 179 213
173.004 326.705 65.4298 17 181 211
173.004 327.869 64.6258 17 169 209
173.003 329.032 63.8219 16 168 207
173.005 330.016 64.0016 15 167 206
173.007 330.999 64.1814 21 166 205
173.009 331.983 64.3612 27 165 204
173.011 332.967 64.5409 22 164 203
173.012 333.95 64.7207 17 165 206
173.014 334.934 64.9005 27 167 209
173.014 336.098 64.0965 38 169 209
173.014 337.261 63.2925 31 180 209
173.014 338.425 62.4886 24 155 183
173.015 339.408 62.6684 12 131 158
173.017 340.392 62.8481 1 66 126
173.019 341.376 63.0279 1 2 95
173.021 342.359 63.2076 1 1 82
173.023 343.343 63.3874 1 1 70
173.023 344.507 62.5835 1 1 61
173.024 345.49 62.7632 1 1 52
173.026 346.474 62.943 1 1 52
173.028 347.458 63.1227 1 1 52
173.028 357.749 56.871 85 184 219
173.028 358.913 56.067 88 194 223
173.03 359.896 56.2468 92 189 226
173.028 361.24 54.4591 46 184 229
173.027 362.403 53.6552 1 167 215
173.027 363.567 52.8512 1 159 201
173.029 364.55 53.031 1 159 200
173.027 365.893 51.2434 1 159 199
173.028 366.877 51.4231 1 150 196
173.864 283.98 32.2061 12 111 156
173.866 284.963 32.3859 23 109 156
173.87 285.767 33.5493 29 92 156
173.88 286.032 37.6639 36 76 158
173.884 286.836 38.8274 45 77 161
173.886 287.82 39.0071 55 78 160
173.89 288.624 40.1706 61 86 159
173.896 289.248 42.3178 67 95 162
173.898 290.231 42.4975 51 111 166
173.901 291.035 43.661 35 128 168
173.903 292.019 43.8408 23 131 171
173.909 292.643 45.988 10 134 172
173.913 293.447 47.1514 12 133 173
173.915 294.431 47.3312 13 133 174
173.917 295.415 47.5109 8 134 176
173.919 296.398 47.6907 2 136 175
173.922 297.202 48.8542 2 132 175
173.926 298.006 50.0177 1 129 172
173.928 298.99 50.1974 1 129 169
173.936 299.434 53.3283 1 129 170
173.94 300.238 54.4918 4 133 172
173.942 301.222 54.6715 8 138 170
173.944 302.206 54.8513 5 137 168
173.946 303.189 55.0311 2 137 172
173.952 303.814 57.1782 2 138 177
173.955 304.618 58.3417 2 139 175
173.959 305.422 59.5052 2 140 174
173.965 306.046 61.6524 2 141 177
173.967 307.029 61.8321 4 141 181
173.969 308.013 62.0119 6 143 176
173.971 308.997 62.1917 4 133 171
173.973 309.98 62.3714 2 136 169
173.974 310.964 62.5512 11 134 168
173.976 311.948 62.7309 20 132 168
173.98 312.752 63.8945 11 131 168
173.982 313.736 64.0742 3 131 166
173.984 314.719 64.2539 6 141 165
173.986 315.703 64.4337 10 151 183
173.987 316.687 64.6135 45 161 202
173.989 317.67 64.7932 80 199 213
173.991 318.654 64.973 63 184 224
173.995 319.458 66.1365 47 180 216
173.997 320.442 66.3162 47 178 208
173.997 321.605 65.5123 48 176 207
173.998 322.589 65.6921 58 173 207
174 323.573 65.8718 68 174 209
174.002 324.556 66.0516 39 180 212
174.004 325.54 66.2313 11 179 210
174.004 326.704 65.4274 10 174 209
174.006 327.687 65.6072 9 167 207
174.007 328.671 65.7869 11 163 205
174.007 329.834 64.983 13 160 204
174.007 330.998 64.1791 18 163 204
174.009 331.982 64.3588 23 161 202
174.011 332.965 64.5386 18 163 200
174.012 333.949 64.7183 13 164 201
174.014 334.933 64.8981 17 164 203
174.016 335.916 65.0778 21 165 207
174.014 337.26 63.2902 26 175 211
174.014 338.423 62.4862 31 180 216
174.015 339.407 62.666 21 164 221
174.017 340.391 62.8458 11 149 204
174.019 341.374 63.0255 11 123 188
174.021 342.358 63.2053 12 97 163
174.021 343.522 62.4014 9 59 139
174.023 344.505 62.5811 7 22 121
174.024 345.489 62.7609 6 12 104
174.026 346.473 62.9406 4 2 104
174.028 347.456 63.1204 6 24 104
174.03 348.44 63.3002 9 46 128
174.031 355.241 59.4602 69 179 214
174.03 356.405 58.6563 71 177 215
174.032 357.388 58.836 73 187 220
174.034 358.372 59.0158 89 192 225
174.03 359.895 56.2444 105 205 231
174.027 361.238 54.4568 54 193 237
174.027 362.402 53.6529 3 175 220
174.027 363.565 52.8489 6 163 203
174.029 364.549 53.0287 9 161 202
174.029 365.712 52.2247 5 162 202
174.026 367.056 50.4371 1 149 196
174.028 368.039 50.6168 40 152 191
174.868 283.619 34.1711 19 105 149
174.87 284.602 34.3509 34 91 146
174.874 285.406 35.5144 52 78 144
174.88 286.03 37.6615 71 64 145
174.884 286.834 38.825 78 50 147
174.888 287.638 39.9885 86 59 150
174.89 288.622 40.1683 83 69 153
174.896 289.246 42.3155 81 82 156
174.897 290.23 42.4952 61 95 159
174.901 291.034 43.6587 41 113 163
174.907 291.658 45.8059 29 132 166
174.911 292.462 46.9693 17 131 168
174.913 293.446 47.1491 17 131 170
174.915 294.429 47.3288 17 131 171
174.919 295.233 48.4923 9 130 172
174.921 296.217 48.6721 2 131 171
174.924 297.021 49.8356 2 132 170
174.926 298.005 50.0153 2 130 167
174.93 298.809 51.1788 1 129 164
174.936 299.433 53.326 1 125 161
174.94 300.237 54.4894 7 122 159
174.942 301.221 54.6692 14 127 162
174.944 302.204 54.849 8 132 165
174.948 303.008 56.0124 3 137 168
174.951 303.812 57.1759 3 145 172
174.957 304.436 59.3231 4 138 171
174.963 305.061 61.4702 4 138 171
174.965 306.044 61.65 4 139 171
174.967 307.028 61.8298 3 141 171
174.969 308.012 62.0095 3 138 168
174.971 308.995 62.1893 2 135 166
174.975 309.799 63.3528 2 129 164
174.976 310.783 63.5326 20 124 162
174.978 311.767 63.7123 39 125 163
174.98 312.75 63.8921 22 126 164
174.982 313.734 64.0718 6 127 164
174.984 314.718 64.2516 12 128 164
174.988 315.522 65.4151 18 138 174
174.987 316.685 64.6111 58 165 184
174.989 317.669 64.7909 98 172 195
174.991 318.653 64.9707 80 179 206
174.995 319.457 66.1341 62 174 201
174.997 320.44 66.3139 55 170 197
174.999 321.424 66.4936 48 171 203
174.998 322.588 65.6897 65 173 208
175 323.571 65.8695 82 177 210
175.002 324.555 66.0492 44 181 212
175.004 325.539 66.229 6 174 210
175.006 326.522 66.4088 3 169 208
175.006 327.686 65.6048 1 166 206
175.007 328.67 65.7846 6 160 205
175.007 329.833 64.9806 12 162 209
175.007 330.997 64.1767 15 165 214
175.009 331.98 64.3565 19 163 209
175.013 332.784 65.52 14 162 205
175.012 333.948 64.716 9 161 206
175.014 334.931 64.8957 7 161 208
175.016 335.915 65.0755 5 166 209
175.014 337.258 63.2878 21 170 211
175.016 338.242 63.4676 38 175 213
175.018 339.226 63.6474 30 176 215
175.017 340.389 62.8434 22 176 207
175.019 341.373 63.0232 22 177 200
175.021 342.357 63.2029 23 171 187
175.021 343.52 62.399 18 166 175
175.023 344.504 62.5788 14 158 166
175.024 345.487 62.7585 11 150 157
175.026 346.471 62.9383 8 152 158
175.028 347.455 63.1181 12 154 160
175.03 348.439 63.2978 17 172 172
175.032 349.422 63.4776 40 190 185
175.031 351.749 61.8697 48 191 211
175.033 352.733 62.0495 34 179 211
175.029 354.256 59.2781 44 174 212
175.031 355.24 59.4579 54 175 212
175.032 356.223 59.6376 58 176 211
175.032 357.387 58.8337 62 183 218
175.032 358.55 58.0297 90 191 225
175.034 359.534 58.2095 119 200 227
175.03 361.057 55.4382 62 202 229
175.027 362.4 53.6505 5 171 216
175.029 363.384 53.8303 11 167 203
175.029 364.547 53.0263 17 166 203
175.031 365.531 53.2061 9 165 203
175.033 366.515 53.3858 1 160 200
175.03 367.858 51.5982 42 155 197
175.87 283.438 35.1525 35 91 143
175.872 284.421 35.3323 55 49 137
175.876 285.225 36.4957 63 42 132
175.88 286.029 37.6592 72 35 133
175.884 286.833 38.8227 77 47 134
175.888 287.637 39.9861 82 57 140
175.89 288.621 40.1659 82 59 147
175.896 289.245 42.3131 82 61 150
175.897 290.229 42.4928 69 79 153
175.901 291.033 43.6563 56 98 157
175.907 291.657 45.8035 35 117 162
175.911 292.461 46.967 15 131 164
175.913 293.444 47.1467 14 131 167
175.917 294.248 48.3102 13 132 168
175.919 295.232 48.49 7 132 169
175.921 296.216 48.6697 2 132 167
175.924 297.02 49.8332 7 128 166
175.928 297.824 50.9967 13 119 162
175.93 298.807 51.1764 7 113 159
175.938 299.252 54.3073 2 107 152
175.94 300.235 54.4871 4 116 146
175.942 301.219 54.6668 7 120 154
175.946 302.023 55.8303 5 127 162
175.948 303.007 56.0101 2 137 165
175.953 303.631 58.1572 2 134 168
175.957 304.435 59.3207 2 132 168
175.963 305.059 61.4679 2 127 168
175.965 306.043 61.6476 2 122 164
175.967 307.027 61.8274 2 121 161
175.969 308.01 62.0072 2 120 161
175.971 308.994 62.187 2 118 161
175.975 309.798 63.3504 2 117 159
175.974 310.961 62.5465 11 118 157
175.978 311.765 63.71 20 120 159
175.98 312.749 63.8897 12 121 161
175.982 313.733 64.0695 3 122 162
175.984 314.716 64.2493 6 124 163
175.988 315.52 65.4127 9 126 164
175.987 316.684 64.6088 29 134 166
175.989 317.668 64.7885 49 142 177
175.993 318.471 65.952 40 145 188
175.997 319.275 67.1155 31 149 187
175.997 320.439 66.3115 42 155 187
175.999 321.423 66.4913 54 161 198
176 322.406 66.6711 64 170 210
176.002 323.39 66.8508 74 185 211
176.004 324.374 67.0306 51 176 213
176.004 325.537 66.2266 29 169 210
176.006 326.521 66.4064 23 167 207
176.006 327.684 65.6025 17 165 206
176.007 328.668 65.7822 33 163 205
176.009 329.652 65.962 49 187 215
176.009 330.815 65.1581 55 186 225
176.009 331.979 64.3541 61 185 217
176.013 332.783 65.5176 57 180 210
176.012 333.946 64.7136 54 176 211
176.014 334.93 64.8934 51 171 213
176.016 335.914 65.0732 48 167 212
176.016 337.077 64.2692 44 170 211
176.016 338.241 63.4653 40 174 210
176.018 339.224 63.645 43 175 209
176.019 340.208 63.8248 47 168 210
176.021 341.192 64.0046 43 174 212
176.021 342.355 63.2006 40 179 212
176.023 343.339 63.3804 32 181 212
176.025 344.323 63.5601 23 183 211
176.026 345.306 63.7399 27 183 211
176.028 346.29 63.9197 30 183 213
176.03 347.274 64.0994 27 181 216
176.032 348.257 64.2792 25 179 217
176.032 349.421 63.4752 31 179 219
176.031 350.584 62.6713 37 179 212
176.031 351.748 61.8674 40 178 205
176.033 352.732 62.0471 44 177 208
176.033 353.895 61.2432 47 174 212
176.035 354.879 61.4229 50 175 210
176.033 356.222 59.6353 59 177 208
176.034 357.206 59.8151 68 180 216
176.034 358.369 59.0111 90 188 225
176.034 359.533 58.2071 112 196 223
176.036 360.516 58.3869 57 181 222
176.027 362.399 53.6482 3 167 213
176.029 363.383 53.8279 6 166 204
176.029 364.546 53.024 10 166 204
176.031 365.53 53.2038 5 163 204
176.028 366.873 51.4161 1 160 204
176.026 368.216 49.6284 42 164 204
176.028 369.2 49.8082 83 168 210
176.87 283.436 35.1502 52 78 137
176.874 284.24 36.3136 76 39 133
176.878 285.044 37.4771 75 32 130
176.88 286.028 37.6569 74 38 131
176.884 286.832 38.8203 76 44 132
176.888 287.636 39.9838 79 46 136
176.892 288.439 41.1473 81 49 141
176.896 289.243 42.3107 83 56 144
176.9 290.047 43.4742 77 63 147
176.903 290.851 44.6377 71 86 152
176.909 291.476 46.7849 42 102 156
176.911 292.459 46.9646 14 123 159
176.913 293.443 47.1444 12 130 163
176.917 294.247 48.3079 10 131 163
176.919 295.231 48.4876 6 132 164
176.923 296.035 49.6511 2 128 163
176.927 296.839 50.8146 13 125 161
176.928 297.822 50.9943 24 118 159
176.934 298.446 53.1415 13 115 157
176.938 299.25 54.305 3 112 148
176.94 300.234 54.4847 2 110 140
176.942 301.218 54.6645 1 116 145
176.948 301.842 56.8117 1 122 151
176.95 302.826 56.9914 2 124 154
176.954 303.63 58.1549 1 127 158
176.955 304.613 58.3347 1 122 158
176.961 305.237 60.4818 1 117 158
176.965 306.041 61.6453 1 118 155
176.967 307.025 61.8251 1 119 152
176.971 307.829 62.9885 1 115 151
176.973 308.813 63.1683 1 112 150
176.975 309.797 63.3481 2 114 149
176.976 310.78 63.5279 2 116 148
176.978 311.764 63.7076 2 117 149
176.98 312.748 63.8874 1 119 150
176.984 313.552 65.0508 1 119 152
176.984 314.715 64.2469 1 120 153
176.988 315.519 65.4104 1 121 154
176.989 316.503 65.5901 1 122 155
176.991 317.486 65.7699 1 128 163
176.993 318.47 65.9497 1 134 172
176.997 319.274 67.1131 1 134 173
176.999 320.258 67.2929 30 135 175
177.001 321.241 67.4727 60 148 183
177.003 322.225 67.6524 63 167 191
177.004 323.209 67.8322 66 169 193
177.006 324.192 68.012 59 171 195
177.006 325.356 67.208 53 165 194
177.008 326.34 67.3878 43 160 194
177.008 327.503 66.5839 33 163 193
177.009 328.487 66.7636 59 167 193
177.009 329.65 65.9596 86 179 199
177.011 330.634 66.1394 94 192 206
177.013 331.618 66.3192 103 188 208
177.013 332.781 65.5152 101 185 210
177.015 333.765 65.695 100 185 216
177.016 334.749 65.8748 95 186 222
177.018 335.732 66.0545 91 185 221
177.018 336.896 65.2506 66 185 221
177.02 337.879 65.4304 42 183 221
177.02 339.043 64.6264 57 182 221
177.021 340.027 64.8062 72 176 222
177.023 341.01 64.9859 65 171 223
177.021 342.354 63.1982 58 172 221
177.025 343.158 64.3617 45 174 219
177.025 344.321 63.5578 33 183 217
177.026 345.305 63.7376 43 171 216
177.028 346.289 63.9173 53 172 214
177.03 347.272 64.0971 43 174 212
177.03 348.436 63.2931 33 172 211
177.032 349.419 63.4729 22 171 209
177.031 350.583 62.669 11 169 205
177.031 351.746 61.865 32 168 200
177.033 352.73 62.0448 54 171 202
177.035 353.714 62.2245 50 175 205
177.035 354.877 61.4206 47 172 206
177.035 356.041 60.6166 60 170 207
177.034 357.204 59.8127 74 178 211
177.034 358.368 59.0088 90 186 216
177.034 359.531 58.2048 106 177 213
177.032 360.874 56.4172 53 169 209
177.031 362.038 55.6132 1 165 205
177.029 363.381 53.8256 2 162 201
177.031 364.365 54.0053 4 159 201
177.031 365.528 53.2014 2 157 202
177.028 366.872 51.4137 1 163 204
177.028 368.035 50.6098 42 166 205
177.03 369.019 50.7895 83 170 208
177.041 386.376 44.8124 138 211 253
177.043 387.36 44.9921 146 211 254
177.047 388.164 46.1556 155 200 237
177.048 389.147 46.3354 149 190 220
177.87 283.435 35.1478 54 54 131
177.874 284.239 36.3113 69 30 129
177.878 285.043 37.4748 68 36 128
177.882 285.846 38.6382 67 42 129
177.886 286.65 39.8017 71 43 131
177.888 287.634 39.9814 76 47 133
177.892 288.438 41.1449 79 46 135
177.898 289.062 43.2921 82 45 138
177.902 289.866 44.4556 79 51 142
177.905 290.67 45.619 75 74 146
177.909 291.474 46.7825 45 95 151
177.911 292.458 46.9623 16 116 155
177.913 293.442 47.142 11 126 159
177.917 294.245 48.3055 7 128 159
177.921 295.049 49.469 6 126 160
177.923 296.033 49.6487 4 120 158
177.927 296.837 50.8122 8 119 157
177.928 297.821 50.992 12 118 156
177.934 298.445 53.1392 12 114 155
177.938 299.249 54.3026 12 90 145
177.94 300.233 54.4824 6 90 135
177.944 301.036 55.6459 1 91 137
177.948 301.841 56.8093 1 99 140
177.95 302.824 56.9891 1 108 144
177.954 303.628 58.1525 1 105 148
177.957 304.432 59.316 1 103 148
177.959 305.416 59.4958 1 102 148
177.965 306.04 61.643 1 101 146
177.967 307.024 61.8227 1 98 144
177.971 307.828 62.9862 1 96 141
177.971 308.991 62.1822 1 97 139
177.975 309.795 63.3457 2 99 139
177.974 310.959 62.5418 2 98 139
177.978 311.762 63.7053 2 98 139
177.98 312.746 63.885 1 100 140
177.982 313.73 64.0648 1 102 142
177.984 314.714 64.2446 1 108 144
177.988 315.518 65.408 1 114 144
177.987 316.681 64.6041 2 117 145
177.991 317.485 65.7676 4 121 150
177.993 318.469 65.9473 5 122 156
177.999 319.093 68.0945 6 124 160
178.001 320.076 68.2743 18 126 164
178.003 321.06 68.4541 30 129 168
178.003 322.224 67.6501 32 135 172
178.004 323.207 67.8298 33 142 174
178.006 324.191 68.0096 30 145 177
178.004 325.534 66.222 27 149 179
178.006 326.518 66.4017 22 148 181
178.008 327.502 66.5815 17 147 181
178.009 328.485 66.7612 30 148 182
178.009 329.649 65.9573 43 150 184
178.011 330.633 66.137 69 159 187
178.013 331.616 66.3168 95 169 199
178.015 332.6 66.4966 103 171 211
178.015 333.764 65.6926 112 202 221
178.016 334.747 65.8724 108 202 231
178.018 335.731 66.0522 104 203 231
178.02 336.715 66.2319 89 185 232
178.02 337.878 65.428 75 202 233
178.02 339.042 64.624 92 199 234
178.021 340.025 64.8038 109 196 234
178.021 341.189 63.9999 100 193 234
178.023 342.172 64.1796 92 190 230
178.025 343.156 64.3594 72 186 226
178.027 344.14 64.5391 52 183 223
178.028 345.124 64.7189 57 179 221
178.028 346.287 63.915 62 175 215
178.03 347.271 64.0947 39 165 209
178.032 348.255 64.2745 17 156 204
178.032 349.418 63.4705 12 150 200
178.034 350.402 63.6503 7 145 198
178.033 351.565 62.8463 17 148 196
178.033 352.729 62.0424 27 152 197
178.035 353.712 62.2222 42 156 198
178.035 354.876 61.4182 57 160 202
178.037 355.86 61.598 48 162 206
178.034 357.203 59.8103 39 177 207
178.034 358.366 59.0064 46 171 208
178.036 359.35 59.1862 53 166 202
178.036 360.513 58.3822 28 161 197
178.033 361.857 56.5946 3 157 197
178.031 363.2 54.8069 2 157 198
178.033 364.184 54.9867 2 158 199
178.031 365.527 53.199 15 158 201
178.032 366.51 53.3788 29 166 204
178.026 368.213 49.6237 54 169 207
178.028 369.197 49.8035 79 172 207
178.041 386.374 44.8101 143 212 254
178.043 387.358 44.9898 131 213 254
178.047 388.162 46.1533 119 173 238
178.048 389.146 46.3331 122 199 223
178.05 390.13 46.5128 126 214 238
178.05 391.293 45.7089 136 205 254
178.052 392.277 45.8886 145 199 247
178.052 393.44 45.0847 143 197 240
178.056 394.244 46.2482 140 196 240
178.057 395.228 46.4279 162 206 241
178.792 272.008 8.66028 129 191 212
178.794 272.992 8.84004 121 200 229
178.873 283.253 36.1292 56 26 127
178.876 284.057 37.2926 63 32 126
178.88 284.861 38.4561 61 40 126
178.882 285.845 38.6359 60 42 127
178.886 286.649 39.7993 66 42 128
178.888 287.633 39.9791 73 42 130
178.892 288.437 41.1426 77 30 132
178.898 289.061 43.2897 82 35 135
178.902 289.865 44.4532 81 40 138
178.907 290.489 46.6004 80 59 141
178.909 291.473 46.7801 49 88 145
178.911 292.456 46.9599 18 105 149
178.913 293.44 47.1397 11 122 154
178.917 294.244 48.3032 5 123 155
178.921 295.048 49.4666 6 124 156
178.923 296.032 49.6464 7 117 155
178.927 296.836 50.8099 4 118 154
178.928 297.819 50.9896 1 116 153
178.934 298.443 53.1368 11 114 151
178.938 299.247 54.3003 21 96 144
178.94 300.231 54.48 11 90 137
178.944 301.035 55.6435 2 89 134
178.948 301.839 56.807 1 89 132
178.952 302.643 57.9704 1 97 134
178.954 303.627 58.1502 1 105 136
178.957 304.431 59.3137 1 103 136
178.959 305.414 59.4934 1 101 136
178.965 306.039 61.6406 1 99 134
178.967 307.022 61.8204 1 97 132
178.969 308.006 62.0001 1 96 130
178.971 308.99 62.1799 1 96 129
178.973 309.973 62.3597 2 95 127
178.974 310.957 62.5394 2 95 125
178.976 311.941 62.7192 2 95 125
178.98 312.745 63.8827 1 95 124
178.982 313.728 64.0624 1 96 127
178.984 314.712 64.2422 1 98 131
178.986 315.696 64.422 2 101 136
178.989 316.5 65.5855 4 105 141
178.991 317.483 65.7652 7 108 145
178.993 318.467 65.945 9 112 149
178.999 319.091 68.0922 11 115 152
179.001 320.075 68.2719 6 119 155
179.003 321.059 68.4517 1 124 161
179.005 322.042 68.6314 1 129 168
179.004 323.206 67.8275 1 131 168
179.006 324.19 68.0073 1 133 169
179.006 325.353 67.2033 1 136 169
179.006 326.517 66.3994 1 140 169
179.008 327.5 66.5791 1 133 170
179.009 328.484 66.7589 1 126 172
179.009 329.647 65.955 1 130 175
179.011 330.631 66.1347 44 135 178
179.013 331.615 66.3145 87 146 185
179.013 332.778 65.5105 105 158 192
179.014 333.762 65.6903 124 171 199
179.016 334.746 65.8701 120 184 207
179.018 335.729 66.0498 117 184 209
179.018 336.893 65.2459 113 185 211
179.02 337.877 65.4256 109 193 214
179.022 338.86 65.6054 127 201 218
179.021 340.024 64.8015 146 203 219
179.023 341.008 64.9812 136 206 220
179.025 341.991 65.161 126 204 218
179.027 342.975 65.3408 99 203 217
179.027 344.138 64.5368 72 180 213
179.029 345.122 64.7165 71 181 209
179.03 346.106 64.8963 71 168 202
179.032 347.09 65.0761 36 156 196
179.032 348.253 64.2722 1 146 196
179.032 349.417 63.4682 2 137 197
179.034 350.4 63.6479 4 140 196
179.033 351.564 62.844 2 143 196
179.033 352.727 62.0401 1 140 197
179.035 353.711 62.2198 34 138 199
179.035 354.874 61.4159 68 146 199
179.037 355.858 61.5956 36 154 199
179.036 357.022 60.7917 4 159 199
179.034 358.365 59.0041 2 165 200
179.036 359.349 59.1838 1 166 198
179.036 360.512 58.3799 3 154 197
179.033 361.855 56.5922 5 156 196
179.031 363.198 54.8046 3 158 196
179.033 364.182 54.9843 1 158 198
179.033 365.346 54.1804 29 160 200
179.032 366.509 53.3764 57 172 204
179.034 367.493 53.5562 66 179 209
179.028 369.196 49.8011 75 168 207
179.039 384.226 45.4319 119 178 221
179.041 385.21 45.6116 134 214 239
179.041 386.373 44.8077 149 214 246
179.043 387.357 44.9875 116 215 252
179.047 388.161 46.1509 83 211 245
179.048 389.144 46.3307 96 208 238
179.05 390.128 46.5105 110 209 244
179.052 391.112 46.6902 108 210 250
179.05 392.455 44.9026 106 201 247
179.052 393.439 45.0823 88 195 245
179.054 394.422 45.2621 70 200 246
179.057 395.227 46.4256 113 206 247
179.063 395.851 48.5727 156 208 245
179.065 396.834 48.7525 183 213 242
179.79 271.023 8.47817 112 173 225
179.792 272.007 8.65793 100 179 210
179.794 272.99 8.83769 88 200 227
179.793 274.154 8.03374 72 190 245
179.795 275.138 8.21351 56 180 229
179.874 283.072 37.1105 48 34 124
179.878 283.876 38.274 54 34 124
179.88 284.86 38.4538 56 39 124
179.884 285.664 39.6172 58 42 124
179.886 286.648 39.797 62 39 125
179.888 287.631 39.9767 66 37 127
179.892 288.435 41.1402 72 30 130
179.898 289.059 43.2874 78 34 132
179.902 289.863 44.4509 76 40 134
179.907 290.487 46.5981 75 45 136
179.909 291.471 46.7778 45 66 139
179.911 292.455 46.9576 16 95 144
179.913 293.439 47.1373 9 120 150
179.917 294.243 48.3008 3 120 151
179.921 295.047 49.4643 4 117 153
179.923 296.03 49.644 6 115 152
179.927 296.834 50.8075 3 112 152
179.928 297.818 50.9873 1 109 150
179.932 298.622 52.1507 6 106 148
179.936 299.426 53.3142 11 103 143
179.94 300.23 54.4777 7 93 139
179.944 301.034 55.6411 3 81 131
179.948 301.838 56.8046 2 84 124
179.952 302.642 57.9681 1 88 124
179.956 303.446 59.1316 1 87 124
179.959 304.249 60.295 1 86 124
179.961 305.233 60.4748 1 84 125
179.965 306.037 61.6383 1 83 122
179.967 307.021 61.818 1 79 120
179.969 308.005 61.9978 1 76 119
179.971 308.988 62.1775 1 67 119
179.973 309.972 62.3573 2 58 115
179.974 310.956 62.5371 2 52 112
179.976 311.939 62.7169 1 46 110
179.978 312.923 62.8966 3 54 109
179.98 313.907 63.0764 5 63 113
179.982 314.89 63.2561 4 74 118
179.986 315.694 64.4196 4 86 127
179.987 316.678 64.5994 4 96 137
179.989 317.662 64.7792 4 105 140
179.993 318.466 65.9426 5 108 143
179.997 319.27 67.1061 6 109 145
180.001 320.074 68.2696 3 114 147
180.003 321.057 68.4493 1 120 155
180.005 322.041 68.6291 1 120 164
180.004 323.205 67.8251 1 120 162
180.006 324.188 68.0049 1 122 161
180.004 325.531 66.2172 1 124 159
180.006 326.515 66.397 3 121 157
180.008 327.499 66.5768 5 118 159
180.009 328.483 66.7565 3 123 162
180.009 329.646 65.9526 2 128 165
180.011 330.63 66.1324 25 131 169
180.011 331.793 65.3284 48 133 171
180.015 332.597 66.4919 55 139 174
180.014 333.761 65.688 63 145 178
180.016 334.744 65.8677 69 150 183
180.018 335.728 66.0475 75 155 187
180.02 336.712 66.2272 83 161 191
180.02 337.875 65.4233 90 168 196
180.022 338.859 65.6031 98 176 202
180.021 340.023 64.7991 106 184 204
180.023 341.006 64.9789 105 189 207
180.025 341.99 65.1587 103 194 207
180.027 342.974 65.3384 87 185 208
180.027 344.137 64.5344 71 177 202
180.028 345.121 64.7142 76 160 197
180.03 346.104 64.894 81 143 190
180.032 347.088 65.0738 68 133 184
180.032 348.252 64.2698 55 123 189
180.032 349.415 63.4658 54 112 194
180.034 350.399 63.6456 53 102 195
180.033 351.562 62.8417 55 111 196
180.033 352.726 62.0377 57 121 198
180.035 353.71 62.2175 74 129 200
180.035 354.873 61.4135 91 138 196
180.037 355.857 61.5933 60 146 192
180.038 356.84 61.7731 29 155 192
180.036 358.184 59.9854 25 160 192
180.036 359.347 59.1815 21 167 194
180.036 360.51 58.3775 12 161 197
180.033 361.854 56.5899 4 156 195
180.035 362.837 56.7696 2 157 194
180.035 364.001 55.9657 1 159 196
180.035 365.164 55.1617 33 159 199
180.035 366.328 54.3578 66 178 205
180.036 367.312 54.5376 71 171 212
180.039 384.224 45.4295 60 166 212
180.041 385.208 45.6093 88 184 225
180.043 386.192 45.7891 116 202 238
180.043 387.355 44.9851 100 205 251
180.047 388.159 46.1486 85 209 252
180.048 389.143 46.3283 92 210 254
180.05 390.127 46.5081 99 204 250
180.052 391.11 46.6879 97 203 246
180.052 392.274 45.8839 96 203 248
180.054 393.258 46.0637 82 206 250
180.056 394.241 46.2435 68 210 252
180.057 395.225 46.4232 95 210 254
180.063 395.849 48.5704 122 210 254
180.065 396.833 48.7501 138 208 254
180.067 397.817 48.9299 155 207 247
180.788 268.874 9.1 15 185 218
180.79 269.858 9.27976 50 196 228
180.792 270.842 9.45952 86 171 220
180.794 271.826 9.63929 70 167 211
180.796 272.809 9.81905 55 187 220
180.795 273.973 9.01511 46 194 230
180.797 274.956 9.19487 37 173 222
180.799 275.94 9.37463 54 167 214
180.801 276.924 9.5544 71 173 211
180.873 283.251 36.1245 40 35 118
180.878 283.875 38.2717 46 34 119
180.88 284.858 38.4514 51 39 119
180.884 285.662 39.6149 57 36 120
180.886 286.646 39.7947 58 34 121
180.89 287.45 40.9581 59 35 123
180.892 288.434 41.1379 66 30 125
180.898 289.058 43.285 74 34 128
180.904 289.682 45.4322 72 40 130
180.907 290.486 46.5957 71 44 133
180.909 291.47 46.7755 42 45 135
180.911 292.453 46.9552 14 92 141
180.915 293.257 48.1187 8 119 146
180.917 294.241 48.2985 2 114 147
180.921 295.045 49.4619 3 110 149
180.923 296.029 49.6417 5 109 148
180.926 296.833 50.8051 3 108 148
180.928 297.816 50.9849 1 106 147
180.93 298.8 51.1647 1 104 145
180.936 299.424 53.3119 1 102 142
180.94 300.228 54.4753 3 97 139
180.942 301.212 54.6551 5 86 132
180.946 302.016 55.8186 3 79 126
180.95 302.82 56.982 1 78 122
180.956 303.444 59.1292 1 78 118
180.957 304.428 59.309 1 78 118
180.959 305.411 59.4887 1 78 119
180.961 306.395 59.6685 1 75 117
180.965 307.199 60.832 1 72 115
180.965 308.363 60.028 1 57 109
180.967 309.346 60.2078 2 43 103
180.968 310.33 60.3876 3 31 100
180.972 311.134 61.551 2 20 96
180.976 311.938 62.7145 1 23 94
180.978 312.922 62.8943 5 26 93
180.98 313.905 63.074 9 30 97
180.982 314.889 63.2538 8 34 102
180.986 315.693 64.4173 7 60 109
180.987 316.677 64.597 4 87 116
180.989 317.66 64.7768 2 97 122
180.993 318.464 65.9403 2 108 129
180.997 319.268 67.1037 2 106 136
180.999 320.252 67.2835 1 104 143
181.003 321.056 68.447 1 112 146
181.005 322.04 68.6267 1 120 149
181.004 323.203 67.8228 1 120 148
181.006 324.187 68.0025 1 120 148
181.004 325.53 66.2149 1 116 151
181.006 326.514 66.3946 5 113 153
181.008 327.497 66.5744 9 116 156
181.007 328.661 65.7705 6 120 160
181.009 329.645 65.9502 4 124 163
181.011 330.628 66.13 7 130 166
181.013 331.612 66.3098 10 132 168
181.015 332.596 66.4895 6 134 171
181.014 333.759 65.6856 2 142 173
181.016 334.743 65.8654 18 150 176
181.018 335.727 66.0452 34 146 178
181.02 336.71 66.2249 53 142 181
181.022 337.694 66.4046 72 146 184
181.022 338.858 65.6007 69 150 188
181.023 339.841 65.7805 67 147 189
181.023 341.005 64.9765 74 144 191
181.025 341.988 65.1563 81 148 193
181.027 342.972 65.3361 75 152 195
181.027 344.136 64.5321 70 134 192
181.029 345.119 64.7119 81 116 189
181.03 346.103 64.8916 92 106 186
181.03 347.267 64.0877 100 97 183
181.032 348.25 64.2675 109 97 184
181.032 349.414 63.4635 105 98 185
181.034 350.397 63.6433 102 91 183
181.033 351.561 62.8393 107 84 181
181.035 352.545 63.0191 113 101 183
181.035 353.708 62.2151 113 118 186
181.037 354.692 62.3949 114 126 187
181.039 355.675 62.5747 84 134 189
181.038 356.839 61.7707 54 143 190
181.036 358.182 59.9831 47 153 191
181.036 359.346 59.1791 41 162 193
181.038 360.329 59.3589 22 169 194
181.035 361.673 57.5712 4 152 192
181.035 362.836 56.7673 2 152 191
181.037 363.82 56.947 1 155 192
181.035 365.163 55.1594 38 159 193
181.035 366.326 54.3555 76 161 199
181.032 367.67 52.5678 77 163 206
181.034 368.653 52.7476 78 161 203
181.027 382.975 41.1328 1 139 202
181.033 383.599 43.28 1 140 200
181.039 384.223 45.4272 1 155 205
181.041 385.207 45.6069 42 166 210
181.043 386.19 45.7867 84 180 222
181.045 387.174 45.9665 85 195 233
181.047 388.158 46.1462 87 203 237
181.048 389.142 46.326 87 212 241
181.05 390.125 46.5058 88 196 239
181.052 391.109 46.6855 87 192 237
181.052 392.272 45.8816 86 198 240
181.054 393.256 46.0613 76 213 242
181.056 394.24 46.2411 67 204 241
181.059 395.044 47.4046 77 195 240
181.061 396.028 47.5843 88 201 240
181.065 396.831 48.7478 93 207 240
181.067 397.815 48.9276 99 204 232
181.067 398.979 48.1236 110 201 223
181.069 399.962 48.3034 121 200 218
181.07 400.946 48.4832 166 199 213
181.784 268.069 7.93418 58 169 211
181.786 269.053 8.11394 21 176 213
181.79 269.857 9.27741 33 172 216
181.792 270.84 9.45717 45 169 214
181.794 271.824 9.63694 37 168 213
181.796 272.808 9.8167 29 174 214
181.795 273.971 9.01275 24 170 215
181.799 274.775 10.1762 20 167 214
181.799 275.939 9.37228 28 162 214
181.801 276.923 9.55204 36 150 210
181.867 282.625 33.9749 39 32 120
181.873 283.249 36.1221 42 31 113
181.876 284.053 37.2856 46 30 114
181.88 284.857 38.4491 50 33 115
181.884 285.661 39.6125 54 36 116
181.886 286.645 39.7923 54 35 118
181.89 287.449 40.9557 53 34 119
181.892 288.432 41.1355 58 32 121
181.898 289.057 43.2827 64 34 124
181.904 289.681 45.4299 65 36 127
181.907 290.485 46.5934 66 44 129
181.909 291.468 46.7731 37 41 132
181.911 292.452 46.9529 8 90 137
181.913 293.436 47.1326 5 99 143
181.917 294.24 48.2961 1 109 144
181.921 295.044 49.4596 2 107 145
181.923 296.027 49.6393 3 106 145
181.927 296.831 50.8028 2 104 145
181.928 297.815 50.9826 1 103 144
181.93 298.799 51.1623 1 102 143
181.936 299.423 53.3095 1 101 141
181.94 300.227 54.473 2 95 139
181.942 301.211 54.6527 3 91 134
181.946 302.014 55.8162 2 86 129
181.948 302.998 55.996 2 69 121
181.954 303.622 58.1431 1 78 113
181.953 304.786 57.3392 1 74 113
181.957 305.59 58.5027 1 74 113
181.959 306.573 58.6824 1 26 112
181.959 307.737 57.8785 1 13 111
181.961 308.721 58.0583 1 1 99
181.962 309.704 58.238 1 1 88
181.966 310.508 59.4015 2 1 84
181.97 311.312 60.565 1 1 81
181.972 312.296 60.7447 1 1 79
181.974 313.28 60.9245 3 1 77
181.976 314.263 61.1043 6 1 81
181.98 315.067 62.2677 10 12 86
181.984 315.871 63.4312 14 24 90
181.985 316.855 63.611 18 50 95
181.987 317.839 63.7908 23 77 105
181.991 318.643 64.9542 15 84 116
181.995 319.447 66.1177 6 92 127
181.999 320.25 67.2812 3 95 139
182.001 321.234 67.4609 1 98 136
182.003 322.218 67.6407 1 97 134
182.002 323.381 66.8367 1 96 135
182.004 324.365 67.0165 1 94 136
182.004 325.529 66.2126 1 93 143
182.006 326.512 66.3923 3 103 150
182.006 327.676 65.5884 5 105 154
182.007 328.66 65.7681 4 118 158
182.009 329.643 65.9479 3 121 160
182.011 330.627 66.1277 8 123 163
182.013 331.611 66.3075 13 126 165
182.015 332.594 66.4872 8 132 168
182.014 333.758 65.6832 3 139 168
182.016 334.741 65.863 16 138 169
182.018 335.725 66.0428 29 138 170
182.02 336.709 66.2225 32 141 172
182.022 337.693 66.4023 36 136 173
182.022 338.856 65.5984 35 134 174
182.023 339.84 65.7781 34 133 174
182.025 340.823 65.9579 37 132 175
182.025 341.987 65.154 41 132 179
182.027 342.971 65.3337 47 129 183
182.029 343.954 65.5135 54 126 182
182.031 344.938 65.6932 71 108 181
182.03 346.102 64.8893 88 103 182
182.032 347.085 65.069 93 88 183
182.032 348.249 64.2651 98 76 180
182.034 349.232 64.4448 98 65 177
182.034 350.396 63.6409 99 54 172
182.035 351.38 63.8207 100 58 167
182.035 352.543 63.0167 100 62 169
182.037 353.527 63.1965 102 76 172
182.037 354.69 62.3925 104 90 179
182.039 355.674 62.5723 90 100 187
182.04 356.658 62.7521 77 110 189
182.038 358.001 60.9644 56 137 191
182.036 359.344 59.1768 34 157 191
182.038 360.328 59.3565 19 153 192
182.037 361.491 58.5526 4 149 190
182.037 362.655 57.7487 3 149 188
182.037 363.818 56.9447 1 149 187
182.035 365.162 55.1571 20 150 187
182.035 366.325 54.3531 38 152 194
182.032 367.668 52.5654 39 148 201
182.028 369.191 49.7941 39 144 199
182.028 370.355 48.9902 64 152 197
182.03 371.338 49.1699 89 163 199
182.025 383.153 40.1468 17 140 199
182.033 383.597 43.2776 15 142 202
182.039 384.221 45.4248 13 145 199
182.041 385.205 45.6046 40 157 196
182.043 386.189 45.7844 67 171 206
182.047 386.993 46.9478 61 177 216
182.047 388.156 46.1439 56 183 222
182.05 388.96 47.3074 60 186 229
182.05 390.124 46.5034 65 189 229
182.052 391.107 46.6832 68 191 229
182.052 392.271 45.8792 71 194 232
182.056 393.075 47.0427 70 192 235
182.058 394.059 47.2225 70 190 231
182.062 394.863 48.3859 70 187 227
182.063 395.846 48.5657 71 185 227
182.065 396.83 48.7455 67 177 227
182.067 397.814 48.9252 63 169 216
182.067 398.977 48.1213 66 151 206
182.069 399.961 48.3011 70 133 202
182.07 400.944 48.4808 142 192 198
182.072 401.928 48.6606 214 209 208
182.074 402.912 48.8403 212 214 218
182.779 266.28 6.5886 49 176 210
182.783 267.084 7.75206 49 171 209
182.785 268.068 7.93182 38 166 208
182.788 268.872 9.0953 28 171 208
182.792 269.676 10.2588 16 177 209
182.794 270.659 10.4385 4 169 209
182.796 271.643 10.6183 3 169 209
182.798 272.627 10.7981 3 170 211
182.798 273.79 9.99411 3 171 213
182.799 274.774 10.1739 3 164 212
182.801 275.757 10.3536 2 157 211
182.803 276.741 10.5334 1 156 208
182.805 277.725 10.7132 85 156 205
182.865 282.803 32.9889 45 41 120
182.873 283.248 36.1198 45 22 112
182.876 284.052 37.2832 46 26 112
182.88 284.856 38.4467 49 30 113
182.884 285.66 39.6102 52 33 113
182.886 286.643 39.7899 50 36 114
182.89 287.447 40.9534 48 33 116
182.892 288.431 41.1332 51 30 118
182.898 289.055 43.2804 54 31 119
182.902 289.859 44.4438 58 33 121
182.907 290.483 46.591 62 35 124
182.909 291.467 46.7708 32 37 127
182.911 292.451 46.9505 3 90 133
182.913 293.434 47.1303 2 99 138
182.917 294.238 48.2938 1 101 140
182.921 295.042 49.4572 1 104 142
182.923 296.026 49.637 1 102 142
182.926 296.83 50.8005 1 101 142
182.928 297.813 50.9802 1 99 141
182.93 298.797 51.16 1 98 141
182.934 299.601 52.3235 1 97 139
182.94 300.225 54.4706 1 94 137
182.942 301.209 54.6504 1 94 134
182.944 302.193 54.8302 2 94 131
182.948 302.997 55.9936 3 86 126
182.951 303.801 57.1571 2 79 122
182.953 304.784 57.3369 1 75 124
182.955 305.768 57.5166 1 71 126
182.957 306.752 57.6964 1 52 122
182.959 307.736 57.8761 1 3 118
182.959 308.899 57.0722 2 1 102
182.96 309.883 57.252 1 1 85
182.962 310.866 57.4317 1 1 85
182.966 311.67 58.5952 1 1 85
182.97 312.474 59.7587 1 1 84
182.972 313.458 59.9384 2 1 83
182.974 314.442 60.1182 4 1 86
182.978 315.246 61.2817 12 1 89
182.981 316.05 62.4451 21 3 89
182.985 316.854 63.6086 33 5 89
182.987 317.837 63.7884 45 26 98
182.989 318.821 63.9682 28 48 107
182.993 319.625 65.1316 11 70 116
182.997 320.429 66.2951 6 92 126
183.001 321.233 67.4586 1 91 128
183.003 322.217 67.6384 1 91 130
183.002 323.38 66.8344 2 90 132
183.004 324.364 67.0141 2 90 135
183.004 325.527 66.2102 2 95 142
183.006 326.511 66.39 1 101 149
183.006 327.674 65.586 1 107 153
183.007 328.658 65.7658 1 116 156
183.009 329.642 65.9456 2 117 158
183.011 330.626 66.1253 9 119 161
183.013 331.609 66.3051 17 122 162
183.015 332.593 66.4849 10 131 164
183.017 333.577 66.6646 4 132 164
183.016 334.74 65.8606 14 134 165
183.02 335.544 67.0241 24 137 168
183.02 336.708 66.2202 12 141 170
183.022 337.691 66.3999 1 135 171
183.022 338.855 65.596 1 138 172
183.023 339.838 65.7758 1 134 172
183.025 340.822 65.9555 1 132 173
183.025 341.986 65.1516 1 131 174
183.027 342.969 65.3314 19 131 175
183.027 344.133 64.5274 38 115 174
183.028 345.116 64.7071 61 101 174
183.03 346.1 64.8869 85 90 172
183.032 347.084 65.0667 86 80 171
183.032 348.247 64.2628 87 70 169
183.032 349.411 63.4588 92 60 167
183.034 350.395 63.6386 97 53 165
183.035 351.378 63.8183 92 53 164
183.037 352.362 63.9981 88 51 165
183.037 353.525 63.1942 91 50 166
183.037 354.689 62.3902 94 61 170
183.041 355.493 63.5537 97 73 173
183.04 356.656 62.7497 101 93 176
183.038 358 60.9621 64 121 178
183.036 359.343 59.1744 28 142 185
183.038 360.326 59.3542 16 156 191
183.037 361.49 58.5502 5 150 188
183.037 362.653 57.7463 3 145 185
183.037 363.817 56.9424 2 145 186
183.037 364.98 56.1384 1 145 186
183.035 366.324 54.3508 1 150 191
183.032 367.667 52.5631 1 152 196
183.03 369.01 50.7755 1 142 196
183.03 370.174 49.9715 45 144 195
183.034 370.978 51.135 89 157 198
183.036 371.961 51.3148 93 165 200
183.037 372.945 51.4945 98 152 197
183.023 382.168 39.9647 40 111 197
183.027 382.972 41.1281 34 142 198
183.035 383.416 44.259 30 146 200
183.039 384.22 45.4225 26 145 199
183.041 385.204 45.6023 38 148 197
183.045 386.008 46.7657 51 149 202
183.047 386.992 46.9455 38 151 207
183.049 387.975 47.1253 25 187 220
183.05 388.959 47.305 33 172 233
183.052 389.943 47.4848 42 173 226
183.054 390.926 47.6645 49 175 220
183.054 392.09 46.8606 57 175 226
183.056 393.074 47.0404 65 175 231
183.06 393.878 48.2038 73 171 224
183.062 394.861 48.3836 63 168 218
183.063 395.845 48.5634 54 160 212
183.065 396.829 48.7431 41 153 207
183.067 397.812 48.9229 28 145 193
183.067 398.976 48.1189 23 137 179
183.069 399.959 48.2987 19 132 189
183.068 401.123 47.4947 117 185 199
183.072 401.927 48.6582 216 214 208
183.074 402.911 48.838 213 214 218
183.771 263.507 5.06324 78 173 198
183.773 264.491 5.24301 55 150 200
183.777 265.295 6.40648 32 152 199
183.779 266.279 6.58625 30 155 199
183.783 267.083 7.74972 29 158 202
183.787 267.887 8.91319 23 161 205
183.788 268.87 9.09295 17 164 203
183.792 269.674 10.2564 12 162 202
183.794 270.658 10.4362 8 161 204
183.796 271.642 10.6159 16 163 206
183.798 272.625 10.7957 25 165 208
183.8 273.609 10.9755 14 163 211
183.801 274.593 11.1552 3 162 209
183.803 275.576 11.335 2 158 208
183.803 276.74 10.5311 2 157 206
183.805 277.724 10.7108 44 157 205
183.859 282.178 30.8394 24 83 129
183.865 282.802 32.9865 47 50 120
183.868 283.606 34.15 48 31 112
183.876 284.05 37.2809 49 11 111
183.88 284.854 38.4444 48 23 111
183.882 285.838 38.6241 47 30 111
183.886 286.642 39.7876 45 31 111
183.888 287.626 39.9674 43 32 113
183.892 288.43 41.1308 46 31 115
183.898 289.054 43.278 49 30 115
183.902 289.858 44.4415 50 27 116
183.907 290.482 46.5886 51 24 119
183.909 291.465 46.7684 26 37 123
183.911 292.449 46.9482 2 90 128
183.913 293.433 47.1279 1 97 134
183.917 294.237 48.2914 1 100 136
183.921 295.041 49.4549 1 99 139
183.923 296.024 49.6346 1 99 139
183.926 296.828 50.7981 1 98 140
183.928 297.812 50.9779 1 98 139
183.93 298.796 51.1576 1 97 139
183.934 299.6 52.3211 1 97 137
183.94 300.224 54.4683 1 93 135
183.942 301.208 54.648 1 95 134
183.944 302.191 54.8278 2 94 133
183.945 303.175 55.0076 4 92 132
183.949 303.979 56.171 2 95 132
183.951 304.963 56.3508 1 98 135
183.955 305.767 57.5143 2 88 139
183.957 306.75 57.694 2 78 132
183.957 307.914 56.8901 2 39 126
183.957 309.077 56.0862 1 1 104
183.958 310.061 56.2659 1 1 83
183.962 310.865 57.4294 1 1 86
183.964 311.849 57.6091 1 1 90
183.966 312.832 57.7889 1 1 90
183.97 313.636 58.9524 2 1 90
183.974 314.44 60.1159 3 1 91
183.976 315.424 60.2956 8 1 92
183.979 316.228 61.4591 13 1 88
183.983 317.032 62.6226 26 1 84
183.985 318.016 62.8023 39 1 91
183.989 318.819 63.9658 24 31 99
183.993 319.623 65.1293 10 45 106
183.995 320.607 65.309 7 81 113
183.999 321.411 66.4725 4 69 119
184 322.395 66.6523 5 76 126
184.002 323.379 66.832 7 83 130
184.004 324.362 67.0118 4 92 135
184.004 325.526 66.2079 2 98 142
184.006 326.509 66.3876 1 105 149
184.008 327.493 66.5674 1 110 152
184.007 328.657 65.7634 1 115 155
184.011 329.461 66.9269 1 117 157
184.011 330.624 66.123 5 118 159
184.013 331.608 66.3027 10 119 159
184.015 332.591 66.4825 7 125 160
184.016 333.575 66.6622 4 127 161
184.018 334.559 66.842 10 128 162
184.02 335.543 67.0218 16 129 165
184.02 336.706 66.2178 8 132 169
184.022 337.69 66.3976 1 135 170
184.022 338.853 65.5937 1 135 171
184.023 339.837 65.7734 1 136 171
184.025 340.821 65.9532 1 135 171
184.027 341.804 66.133 2 135 169
184.027 342.968 65.329 27 120 167
184.027 344.131 64.5251 52 104 167
184.028 345.115 64.7048 62 78 167
184.03 346.099 64.8846 71 48 163
184.03 347.262 64.0806 78 45 159
184.032 348.246 64.2604 85 43 158
184.032 349.409 63.4564 88 48 157
184.034 350.393 63.6362 91 53 159
184.035 351.377 63.816 89 53 162
184.037 352.361 63.9957 87 56 161
184.037 353.524 63.1918 89 49 161
